X Y Z R G B
-82.3271 -20.2676 146.9064 15 15 15
-83.0386 -9.2807 131.7794 5 5 5
-163.1341 -6.3327 87.4281 224 224 224
-15.9024 -79.9467 7.6137 81 81 81
-23.6888 78.0912 56.8864 0 0 0
41.6235 62.2942 111.2496 0 0 0
-39.8388 32.6947 0.0 51 51 51
-41.4298 62.0039 42.2393 0 0 0
80.0381 -15.9205 70.414 0 0 0
15.9206 -80.0381 50.0095 0 0 0
7.4145 -75.2802 204.0363 0 0 0
-116.401 6.4043 44.4543 188 188 188
-45.338 67.8529 56.8864 0 0 0
-45.338 67.8529 126.3354 0 0 0
15.9205 80.0381 98.3747 0 0 0
-71.9694 38.4683 42.001 0 0 0
-44.1477 -44.1477 18.2831 40 40 40
-128.7204 -0.0001 144.736 214 214 214
67.8529 45.338 98.3747 0 0 0
-91.4688 -12.4767 34.7847 102 102 102
41.6236 -62.2941 111.2496 0 0 0
-95.1193 -6.5091 144.2044 76 76 76
-0.0001 81.6061 139.863 0 0 0
-110.1328 -11.2963 151.8128 183 183 183
20.3355 -67.037 18.426 91 91 91
7.9986 81.2122 139.863 0 0 0
78.0912 23.6888 181.894 0 0 0
-6.5892 21.7215 0.0 132 132 132
-147.8996 6.3427 75.8722 234 234 234
-6.3635 64.6089 0.0 76 76 76
-51.7106 -63.0096 196.3167 0 0 0
15.953 23.8754 0.0 132 132 132
31.2292 75.3942 126.3354 0 0 0
-63.0096 -51.7107 196.3167 0 0 0
-49.1446 59.8827 205.0 0 0 0
-101.6351 -0.0 30.7947 183 183 183
81.2122 7.9987 165.6304 0 0 0
7.3091 74.2116 42.2393 0 0 0
23.6886 78.0913 56.8864 0 0 0
63.0816 -51.7697 126.3354 0 0 0
-7.9988 81.2122 139.863 0 0 0
75.3942 31.2293 181.894 0 0 0
-149.5267 6.3427 81.4899 229 229 229
-78.0021 23.9463 7.5966 30 30 30
-124.9742 -11.2827 158.8957 188 188 188
-62.126 18.8456 0.0 25 25 25
-49.6694 -15.0671 18.2831 45 45 45
31.0866 75.0499 201.8289 0 0 0
-91.8888 -7.0046 32.6426 132 132 132
23.6886 78.0913 146.7016 0 0 0
-75.6454 -0.0 204.0363 0 0 0
-78.0021 -23.9465 196.3281 0 0 0
35.4022 66.2331 180.3578 0 0 0
-43.1575 28.8368 18.2831 56 56 56
81.6061 0.0 181.894 0 0 0
-134.7957 6.3319 154.914 198 198 198
-14.6163 -73.4809 111.2496 0 0 0
51.2889 -5.0515 0.0 66 66 66
80.0381 -15.9205 139.863 0 0 0
-23.6888 78.0912 154.5952 0 0 0
6.3633 64.6089 0.0 81 81 81
-71.6936 -21.748 111.2496 0 0 0
-153.9003 -11.2971 96.5218 229 229 229
51.9899 -51.9899 18.8548 86 86 86
-134.2245 -11.2823 40.4068 173 173 173
-107.219 11.2975 42.1362 188 188 188
41.4297 -62.004 42.2393 0 0 0
-78.0913 26.9116 49.7282 0 0 0
7.593 77.094 205.0 0 0 0
-28.1368 67.928 18.8548 66 66 66
-38.9439 7.7464 18.2831 71 71 71
28.8796 5.7445 18.2831 163 163 163
-71.9693 -38.4684 181.894 0 0 0
23.6886 78.0913 31.9205 10 10 10
26.5289 -10.9886 0.0 168 168 168
-63.0817 51.7697 50.0095 0 0 0
75.3942 31.2293 98.3747 0 0 0
63.0816 -51.7697 56.8864 0 0 0
21.6467 71.3597 42.2393 0 0 0
-83.3943 -0.0 130.2213 5 5 5
-7.9987 -81.2122 50.0095 0 0 0
-62.4343 -0.0 18.2831 20 20 20
67.853 45.338 70.414 0 0 0
67.853 -45.3379 165.6304 0 0 0
-75.3942 -31.9563 56.8445 0 0 0
-71.6407 38.2926 201.8289 0 0 0
7.9622 -80.8413 201.8289 0 0 0
57.7042 -57.7042 146.7016 0 0 0
-51.5377 -0.0 0.0 56 56 56
28.9482 69.8872 204.0363 0 0 0
-150.8086 -6.3429 87.3714 229 229 229
62.2941 41.6236 111.2496 0 0 0
57.7042 -57.7042 98.3747 0 0 0
-15.9206 -80.0381 139.863 0 0 0
-151.6454 6.3426 92.6809 224 224 224
80.0381 -15.9205 42.001 0 0 0
-45.3379 -67.853 146.7016 0 0 0
-38.2928 71.6406 201.8289 0 0 0
45.3379 -67.853 50.0095 0 0 0
-78.0912 -26.5968 41.7549 0 0 0
-53.105 53.1049 180.3578 0 0 0
7.9896 -81.1195 196.3167 0 0 0
-41.6237 62.2941 111.2496 0 0 0
31.2293 -75.3942 31.9205 35 35 35
74.7392 -7.3611 180.3578 0 0 0
-62.8969 42.0262 204.0363 0 0 0
-72.3873 21.9583 204.0363 0 0 0
-31.2294 75.3942 98.3747 0 0 0
-160.2523 11.2821 80.0438 234 234 234
-0.0001 51.905 18.2831 40 40 40
-140.357 13.4653 145.1857 209 209 209
-116.5985 -0.0 30.683 198 198 198
63.0816 51.7698 165.6304 0 0 0
-7.9988 81.2122 56.8864 0 0 0
19.7226 47.6147 0.0 45 45 45
-67.853 -45.3379 126.3354 0 0 0
-75.3943 31.9562 56.8445 0 0 0
63.0816 51.7698 181.894 0 0 0
-64.6089 -6.3634 0.0 25 25 25
33.015 -22.0599 18.2831 127 127 127
-51.7698 63.0816 165.6304 0 0 0
-34.659 64.8423 18.8548 61 61 61
41.7242 62.4448 180.3578 0 0 0
-57.7042 -57.7042 146.7016 0 0 0
51.6544 5.0875 18.2831 51 51 51
-18.8458 62.1259 0.0 56 56 56
-51.7698 -63.0816 18.8275 45 45 45
-151.8611 11.296 112.3017 214 214 214
63.0816 -51.7697 70.414 0 0 0
43.1574 -28.8369 18.2831 91 91 91
57.6383 57.6384 196.3167 0 0 0
-100.9827 -11.2823 32.627 178 178 178
-31.2294 75.3942 18.8275 66 66 66
71.9693 -38.4684 50.0095 0 0 0
38.4684 -71.9693 31.9205 35 35 35
28.8796 -5.7445 18.2831 183 183 183
-2.2802 -23.1515 18.2831 173 173 173
-84.8883 -8.4575 34.1545 86 86 86
45.4517 -24.2944 0.0 96 96 96
-160.7918 -6.3381 119.277 219 219 219
-71.9693 -38.4684 18.8275 35 35 35
-24.2945 45.4516 0.0 71 71 71
-86.1686 16.9427 41.8302 35 35 35
-0.0 -0.0 0.0 132 132 132
-62.1329 6.1195 18.2831 10 10 10
-81.6688 9.7431 168.6429 56 56 56
77.1926 -23.4161 2.1141 81 81 81
67.853 -45.3379 31.9205 15 15 15
63.0816 51.7698 42.001 0 0 0
-83.0386 9.2807 64.4794 5 5 5
78.0912 23.6888 126.3354 0 0 0
-141.5217 -6.3327 44.6602 193 193 193
-7.9987 -81.2122 181.894 0 0 0
-67.8531 45.3378 50.0095 0 0 0
-162.6608 -11.282 96.051 229 229 229
73.9921 -14.7179 0.2643 86 86 86
28.6708 -69.2175 111.2496 0 0 0
-50.9077 10.1261 18.2831 40 40 40
-150.8086 6.3427 87.3714 229 229 229
-153.9635 -13.4661 68.1008 239 239 239
-80.4785 19.6682 67.8604 0 0 0
57.9136 47.5286 111.2496 0 0 0
78.0913 -23.6887 126.3354 0 0 0
0.0 -81.6061 165.6304 0 0 0
77.094 -7.5931 205.0 0 0 0
-45.3379 -67.853 165.6304 0 0 0
81.2122 -7.9987 146.7016 0 0 0
-71.3598 21.6466 42.2393 10 10 10
58.248 38.9201 18.426 66 66 66
-84.2389 -17.9529 54.3846 0 0 0
-22.8098 75.1936 204.7357 0 0 0
-74.5589 -7.3434 111.2496 0 0 0
45.3379 -67.853 181.894 0 0 0
-80.2776 7.9066 2.1141 15 15 15
21.7215 6.5892 0.0 173 173 173
-41.4297 -62.004 42.2393 0 0 0
-24.8447 -59.9803 0.0 61 61 61
70.2999 -37.5761 203.943 0 0 0
-144.8341 -11.2814 143.7821 219 219 219
-15.9207 80.038 70.414 0 0 0
-63.0816 -51.7698 181.894 0 0 0
15.067 -49.6694 18.2831 91 91 91
-101.373 -6.332 162.9456 163 163 163
-28.077 28.0769 18.2831 81 81 81
-14.6516 -73.6586 180.3578 0 0 0
-134.4116 -0.0001 140.7198 219 219 219
51.5333 62.7936 201.8289 0 0 0
11.2682 27.204 18.2831 117 117 117
-15.9025 79.9467 7.6137 61 61 61
-81.1195 -8.2744 196.5009 0 0 0
38.4684 -71.9693 70.414 0 0 0
-95.0645 6.5 162.1425 127 127 127
-51.7698 63.0816 181.894 0 0 0
-40.1227 32.9277 18.2831 56 56 56
-58.0537 -47.6435 180.3578 0 0 0
57.4406 57.4407 201.8289 0 0 0
-57.7042 -57.7042 50.0095 0 0 0
5.6019 -28.1629 0.0 158 158 158
57.7042 -57.7042 56.8864 0 0 0
-78.0912 -26.1245 70.3521 0 0 0
-38.4684 -71.9693 31.9205 25 25 25
-151.8189 13.4653 129.6605 168 168 168
41.9131 -62.7274 0.2643 86 86 86
-57.7042 -57.7042 70.414 0 0 0
20.5166 -10.9663 18.2831 178 178 178
7.5443 37.9279 0.0 66 66 66
-40.1226 -32.9278 18.2831 40 40 40
73.4809 -14.6162 111.2496 0 0 0
61.2346 12.1804 18.2831 35 35 35
38.4244 71.8872 196.3167 0 0 0
-154.6739 6.3308 132.4277 183 183 183
-51.289 -5.0515 0.0 56 56 56
31.2292 75.3942 146.7016 0 0 0
23.6887 -78.0913 146.7016 0 0 0
0.0 -81.6061 42.001 0 0 0
-63.0816 -51.7698 31.9205 15 15 15
63.0096 51.7107 196.3167 0 0 0
-0.0001 64.9222 0.0 76 76 76
-35.5626 66.5328 0.2643 56 56 56
81.6061 0.0 126.3354 0 0 0
80.0381 15.9206 98.3747 0 0 0
0.0 -73.5248 18.8548 86 86 86
75.3942 -31.2293 165.6304 0 0 0
81.2122 7.9987 154.5952 0 0 0
51.7698 -63.0816 146.7016 0 0 0
-101.433 6.3418 147.9771 178 178 178
-31.2294 75.3941 50.0095 0 0 0
7.9987 -81.2122 50.0095 0 0 0
-112.996 -11.3097 31.9771 204 204 204
-36.7024 36.7023 18.2831 61 61 61
51.7698 -63.0816 18.8275 76 76 76
-128.3683 6.3319 158.6878 188 188 188
67.853 -45.3379 42.001 0 0 0
-164.3401 -0.0001 95.591 219 219 219
-13.667 68.7082 18.426 61 61 61
15.9205 80.0381 56.8864 0 0 0
-141.8405 11.2961 134.0092 178 178 178
-57.7042 -57.7042 56.8864 0 0 0
-138.8259 6.3427 58.6311 244 244 244
-0.0 -28.7147 0.0 173 173 173
-139.8381 -13.8689 51.3012 204 204 204
-21.6467 -71.3597 42.2393 0 0 0
-150.2982 6.3319 139.0966 183 183 183
28.8702 69.699 0.2643 51 51 51
12.6657 -63.6748 0.0 76 76 76
-64.9222 -0.0 0.0 25 25 25
-32.6949 39.8387 0.0 71 71 71
-62.1329 -6.1196 18.2831 20 20 20
-15.9206 -80.0381 98.3747 0 0 0
57.6439 -47.3071 42.2393 0 0 0
-160.7559 6.3258 119.1663 214 214 214
-34.1043 18.2291 0.0 81 81 81
78.0912 23.6888 50.0095 0 0 0
-23.6887 -78.0913 146.7016 0 0 0
81.1195 7.9896 7.6137 40 40 40
-45.338 67.8529 70.414 0 0 0
-125.3613 -6.3328 160.1093 198 198 198
81.2334 0.0 201.8289 0 0 0
38.4684 -71.9693 50.0095 0 0 0
15.9205 80.0381 18.8275 71 71 71
73.1699 7.2066 18.8548 40 40 40
34.6866 51.9122 18.2831 71 71 71
-15.0671 49.6694 18.2831 45 45 45
-148.8965 6.3417 116.9308 209 209 209
-45.3379 -67.853 18.8275 51 51 51
-15.9206 -80.0381 181.894 0 0 0
-151.9375 -6.3425 96.5828 224 224 224
15.9205 80.0381 70.414 0 0 0
67.853 45.338 56.8864 0 0 0
78.0913 -23.6887 56.8864 0 0 0
38.4244 71.8872 7.6137 56 56 56
50.5474 -10.0545 0.0 61 61 61
81.2122 7.9987 50.0095 0 0 0
-63.0816 -51.7698 154.5952 0 0 0
7.5443 -37.9279 0.0 117 117 117
-51.7698 -63.0816 146.7016 0 0 0
58.3165 -47.8591 0.2643 71 71 71
-81.2122 -9.1379 18.0458 25 25 25
23.6887 -78.0913 98.3747 0 0 0
80.0381 15.9206 181.894 0 0 0
57.7042 57.7043 165.6304 0 0 0
-94.6668 11.5799 160.2295 86 86 86
-148.4451 -11.2824 54.617 214 214 214
59.7452 -18.1235 18.2831 71 71 71
-153.0911 -11.2964 106.5019 219 219 219
-122.4086 6.3447 147.9799 188 188 188
69.8872 28.9483 204.0363 0 0 0
-81.6061 -0.0 182.9535 0 0 0
-80.4785 -19.6683 67.8604 0 0 0
15.9023 79.9467 196.3167 0 0 0
-149.2135 -11.2977 74.2441 239 239 239
78.0912 23.6888 70.414 0 0 0
-28.6329 42.852 0.0 81 81 81
-51.7698 -63.0816 139.863 0 0 0
38.2926 71.6407 201.8289 0 0 0
23.6886 78.0913 126.3354 0 0 0
-15.9206 -80.0381 165.6304 0 0 0
-51.7698 -63.0816 98.3747 0 0 0
-74.7392 -7.3612 180.3578 0 0 0
51.7697 63.0817 154.5952 0 0 0
-75.3942 -31.7671 165.6518 0 0 0
-124.9742 11.2825 158.8957 193 193 193
15.9206 -80.0381 181.894 0 0 0
-47.9883 -58.474 204.0363 0 0 0
-57.7043 57.7041 181.894 0 0 0
-73.9921 -14.7179 0.2643 25 25 25
-0.0001 81.6061 70.414 0 0 0
-94.6668 -11.5801 160.2295 61 61 61
-156.782 11.2801 125.0741 178 178 178
-127.9781 11.2821 36.6065 193 193 193
-5.0515 -51.2889 0.0 86 86 86
-150.196 -13.8688 127.6893 183 183 183
-59.8828 -49.1446 205.0 0 0 0
14.7987 35.7273 0.0 66 66 66
-86.7943 -7.9821 59.8725 0 0 0
-5.602 28.1629 0.0 117 117 117
-80.0381 -17.6293 18.5468 20 20 20
-94.5413 -13.8291 149.1711 40 40 40
-28.9482 -69.8872 204.0363 0 0 0
-128.2692 6.3427 48.7973 204 204 204
-92.17 -0.0 162.1447 122 122 122
-52.9768 -52.9768 111.2496 0 0 0
-63.0817 51.7697 70.414 0 0 0
-67.853 -45.3379 139.863 0 0 0
-67.8531 45.3378 56.8864 0 0 0
-57.7043 57.7041 18.8275 86 86 86
0.0 -75.4417 0.2643 86 86 86
-82.505 16.5255 160.1085 40 40 40
28.1367 -67.928 18.8548 96 96 96
-145.9478 6.3427 70.6678 244 244 244
-75.3943 32.0349 49.9392 0 0 0
78.0913 -23.6887 42.001 0 0 0
79.9467 15.9024 196.3167 0 0 0
-20.5166 10.9663 18.2831 122 122 122
21.4844 -32.1537 0.0 147 147 147
81.2122 7.9987 18.8275 40 40 40
-67.7756 45.286 196.3167 0 0 0
76.0943 7.4947 204.7591 0 0 0
45.3379 67.853 42.001 0 0 0
-159.3773 11.2796 118.4719 209 209 209
75.1017 0.0 180.3578 0 0 0
-71.9694 38.4683 181.894 0 0 0
-148.8607 -0.0001 82.2206 239 239 239
-14.5483 73.1387 42.2393 0 0 0
63.6748 12.6657 0.0 35 35 35
-26.5289 -10.9886 0.0 127 127 127
80.038 15.9206 126.3354 0 0 0
51.7698 -63.0816 56.8864 0 0 0
80.038 15.9206 165.6304 0 0 0
-149.9452 -0.0001 110.6935 224 224 224
45.3379 -67.853 31.9205 25 25 25
75.3942 -31.2293 42.001 0 0 0
47.5285 -57.9136 111.2496 0 0 0
-92.1701 -0.0 32.1219 158 158 158
-0.0001 81.6061 42.001 0 0 0
-74.1313 -22.4875 205.0 0 0 0
27.204 -11.2683 18.2831 168 168 168
-16.359 -24.483 18.2831 102 102 102
-51.7698 63.0816 31.9205 5 5 5
-83.3943 -0.0 32.6305 112 112 112
-41.9131 -62.7275 0.2643 51 51 51
-47.6146 -19.7226 0.0 40 40 40
41.4297 62.004 42.2393 0 0 0
67.853 45.338 146.7016 0 0 0
-47.6435 58.0537 180.3578 0 0 0
81.6061 0.0 165.6304 0 0 0
-74.2116 7.3091 42.2393 30 30 30
-36.5177 -68.3198 205.0 0 0 0
31.2292 75.3942 50.0095 0 0 0
-78.0912 -26.5968 139.7969 0 0 0
-7.9987 -81.2122 18.8275 76 76 76
23.6886 78.0913 139.863 0 0 0
-38.4685 71.9693 139.863 0 0 0
7.9987 -81.2122 31.9205 35 35 35
47.9883 -58.474 204.0363 0 0 0
80.2776 -7.9066 2.1141 86 86 86
35.3169 -66.0732 111.2496 0 0 0
51.7697 63.0817 165.6304 0 0 0
23.6887 -78.0913 42.001 0 0 0
-67.8531 45.3378 42.001 0 0 0
75.3942 31.2294 50.0095 0 0 0
-122.4112 6.4043 45.8443 198 198 198
63.0816 -51.7697 50.0095 0 0 0
-156.2829 -6.3327 65.5759 239 239 239
-5.0875 -51.6544 18.2831 86 86 86
-50.185 -41.1858 0.0 40 40 40
-23.8754 15.953 0.0 107 107 107
-112.996 11.3095 31.9771 173 173 173
-133.7412 6.3427 53.1455 224 224 224
15.9205 80.0381 139.863 0 0 0
-31.2293 -75.3942 154.5952 0 0 0
-101.373 6.3319 162.9456 193 193 193
-131.4458 6.3325 37.112 209 209 209
62.126 -18.8457 0.0 76 76 76
35.3168 66.0732 111.2496 0 0 0
41.1857 50.185 0.0 66 66 66
-33.015 22.0599 18.2831 66 66 66
23.6616 78.0021 7.6137 40 40 40
-81.1195 8.2743 7.4183 15 15 15
-150.4302 -6.3321 139.3531 183 183 183
63.0816 -51.7697 31.9205 15 15 15
-67.0721 -44.8162 2.1141 35 35 35
15.8478 79.6725 201.8289 0 0 0
23.6886 78.0913 70.414 0 0 0
-161.8311 -0.0001 79.3932 244 244 244
-23.6887 -78.0913 31.9205 5 5 5
69.699 -28.8702 0.2643 81 81 81
-21.8006 -71.867 180.3578 0 0 0
6.1196 -62.1329 18.2831 71 71 71
-31.2293 -75.3942 139.863 0 0 0
21.3428 70.3581 18.8548 45 45 45
-156.98 -11.2825 125.4588 188 188 188
78.0913 -23.6887 154.5952 0 0 0
-67.853 -45.3379 165.6304 0 0 0
36.7024 -36.7024 18.2831 71 71 71
-71.9693 -38.4684 165.6304 0 0 0
57.6383 57.6384 7.6137 81 81 81
-84.2389 17.9527 54.3846 20 20 20
15.9205 80.0381 126.3354 0 0 0
75.3942 31.2293 146.7016 0 0 0
-148.8965 -6.342 116.9308 219 219 219
-41.7244 62.4447 180.3578 0 0 0
-157.1925 13.8685 108.7777 214 214 214
81.2122 7.9987 42.001 0 0 0
45.2861 67.7756 7.6137 66 66 66
12.6656 63.6748 0.0 66 66 66
59.1063 -48.5073 204.7591 0 0 0
-51.7698 -63.0816 181.894 0 0 0
31.2292 75.3942 56.8864 0 0 0
-31.0867 -75.0499 201.8289 0 0 0
-88.4312 -16.5775 46.1155 35 35 35
-71.9694 38.4683 31.9205 10 10 10
-31.2293 -75.3942 126.3354 0 0 0
47.954 -19.8632 18.2831 91 91 91
-146.6697 -13.8688 133.4444 188 188 188
-133.8636 -13.8689 46.0044 188 188 188
28.1367 67.9281 18.8548 51 51 51
-107.5942 6.3319 163.568 193 193 193
-144.2158 -0.0001 126.9146 198 198 198
-71.9694 38.4683 56.8864 0 0 0
15.9206 -80.0381 18.8275 76 76 76
63.0816 51.7698 139.863 0 0 0
7.9987 -81.2122 126.3354 0 0 0
62.7274 41.9132 0.2643 66 66 66
0.0 -80.667 2.1141 86 86 86
-116.6812 -0.0001 148.4427 188 188 188
68.8951 28.5373 42.2393 0 0 0
-67.853 -45.3379 42.001 0 0 0
-39.6074 -48.2618 18.2831 40 40 40
-75.0499 -31.0867 201.8289 0 0 0
-0.0001 75.1017 180.3578 0 0 0
-147.0501 11.2974 68.913 244 244 244
-81.1195 8.2743 196.5009 0 0 0
-155.3703 -13.8688 115.1735 224 224 224
-47.5285 -57.9137 111.2496 0 0 0
45.3379 67.853 50.0095 0 0 0
18.1234 59.7452 18.2831 35 35 35
51.7698 -63.0816 31.9205 20 20 20
71.9693 38.4684 56.8864 0 0 0
-0.0 28.7147 0.0 117 117 117
23.6617 -78.0021 7.6137 91 91 91
-14.7582 17.9829 18.2831 137 137 137
81.2122 -7.9987 42.001 0 0 0
67.853 45.338 165.6304 0 0 0
45.1308 67.5431 201.8289 0 0 0
20.3043 -20.3043 0.0 198 198 198
7.9986 81.2122 165.6304 0 0 0
51.7697 63.0817 126.3354 0 0 0
80.0381 15.9206 154.5952 0 0 0
-81.6688 9.7431 28.7584 71 71 71
15.953 -23.8754 0.0 183 183 183
-88.5751 13.5071 158.9161 66 66 66
-122.4112 -6.4044 45.8443 193 193 193
67.853 45.338 126.3354 0 0 0
-23.6888 78.0912 165.6304 0 0 0
31.2293 -75.3942 98.3747 0 0 0
-86.1685 -16.9428 153.6309 25 25 25
75.3942 31.2293 42.001 0 0 0
63.0816 -51.7697 146.7016 0 0 0
57.7042 -57.7042 139.863 0 0 0
71.9693 -38.4684 154.5952 0 0 0
31.1936 -75.3081 196.3167 0 0 0
57.6383 -57.6383 196.3167 0 0 0
-146.6367 13.8685 133.3802 178 178 178
-161.3176 -0.0091 119.3342 209 209 209
-91.3338 14.8833 155.2027 61 61 61
-7.9987 -81.2122 139.863 0 0 0
-63.0816 -51.7698 126.3354 0 0 0
43.1574 28.8369 18.2831 66 66 66
-38.4685 71.9693 18.8275 61 61 61
37.9278 -7.5443 0.0 132 132 132
51.7697 63.0817 50.0095 0 0 0
-49.6694 15.067 18.2831 40 40 40
-58.3166 47.859 0.2643 81 81 81
-23.6887 -78.0913 56.8864 0 0 0
-59.7452 -18.1235 18.2831 20 20 20
14.9604 -49.3179 0.0 91 91 91
38.2927 -71.6406 201.8289 0 0 0
-95.1193 -6.51 50.7698 91 91 91
-79.117 15.7372 2.1141 15 15 15
-79.6725 15.8477 201.8289 0 0 0
28.7401 69.385 180.3578 0 0 0
-150.861 -0.0001 139.5041 178 178 178
-67.853 -45.3379 18.8275 35 35 35
64.8423 34.659 18.8548 61 61 61
27.204 11.2683 18.2831 163 163 163
-47.3072 57.6439 42.2393 0 0 0
-159.3928 -0.0001 72.0903 244 244 244
0.0 -75.6453 204.0363 0 0 0
-147.2994 -0.0001 76.64 244 244 244
-133.8636 13.8685 147.8369 193 193 193
81.1195 -7.9895 7.6137 86 86 86
45.3379 67.853 165.6304 0 0 0
51.7697 63.0817 70.414 0 0 0
0.0 -81.6061 154.5952 0 0 0
-144.7006 -11.2963 129.3835 188 188 188
67.853 -45.3379 146.7016 0 0 0
-31.1936 -75.3081 7.6137 61 61 61
63.0816 -51.7697 181.894 0 0 0
-67.7755 -45.2862 196.3167 0 0 0
-31.0868 75.0498 201.8289 0 0 0
51.7698 -63.0816 181.894 0 0 0
71.9693 -38.4684 165.6304 0 0 0
-113.011 11.3248 42.0769 178 178 178
63.0816 -51.7697 42.001 0 0 0
-84.8883 8.4574 34.1545 76 76 76
57.0401 57.0402 2.1141 81 81 81
47.9539 19.8632 18.2831 56 56 56
49.6694 15.0671 18.2831 51 51 51
52.73 52.7301 42.2393 0 0 0
62.7935 51.5334 201.8289 0 0 0
38.4683 71.9694 98.3747 0 0 0
-0.0 -51.5377 0.0 76 76 76
44.8161 67.0722 2.1141 66 66 66
-28.8369 -43.1574 18.2831 66 66 66
15.9206 -80.0381 56.8864 0 0 0
7.9987 -81.2122 146.7016 0 0 0
-116.3404 6.3348 162.8554 198 198 198
-74.5266 30.8698 2.1141 35 35 35
81.6061 0.0 154.5952 0 0 0
41.9131 62.7275 0.2643 66 66 66
75.3942 -31.2293 70.414 0 0 0
-107.0816 -13.466 34.0077 193 193 193
14.5482 -73.1387 42.2393 0 0 0
81.2122 -7.9987 126.3354 0 0 0
-15.9206 -80.0381 42.001 0 0 0
31.2292 75.3942 139.863 0 0 0
79.117 15.7374 2.1141 35 35 35
29.3088 -71.8468 204.9826 0 0 0
-75.3082 31.2647 196.3195 0 0 0
17.5465 -14.4001 0.0 188 188 188
-45.338 67.8529 139.863 0 0 0
-162.6431 11.2816 95.7714 229 229 229
-139.8381 13.8687 51.3012 239 239 239
45.3379 67.853 70.414 0 0 0
38.4684 -71.9693 42.001 0 0 0
-128.4817 -0.0001 49.732 188 188 188
-55.0615 29.4309 18.2831 56 56 56
75.6454 0.0 204.0363 0 0 0
80.0381 15.9206 18.8275 35 35 35
66.233 -35.4023 180.3578 0 0 0
0.0 -81.6061 139.863 0 0 0
-97.7162 -13.8689 39.9049 132 132 132
40.6238 -67.8169 204.5791 0 0 0
-63.0816 -51.7698 18.8275 30 30 30
-101.6351 -0.0 163.3585 193 193 193
78.0912 23.6888 154.5952 0 0 0
-50.5474 -10.0545 0.0 51 51 51
38.4684 -71.9693 165.6304 0 0 0
15.9024 -79.9467 7.6137 76 76 76
70.358 21.3429 18.8548 35 35 35
-71.9694 38.4683 146.7016 0 0 0
38.4245 -71.8871 7.6137 102 102 102
-133.7928 -0.0001 54.3303 219 219 219
-115.9759 -11.4072 42.378 193 193 193
62.1329 6.1196 18.2831 35 35 35
7.9987 -81.2122 42.001 0 0 0
-71.9694 38.4683 50.0095 0 0 0
-62.7936 51.5332 201.8289 0 0 0
-118.9843 11.3039 150.7288 193 193 193
-14.9173 -74.9942 204.7591 0 0 0
53.9808 36.0689 0.0 61 61 61
71.9693 -38.4684 98.3747 0 0 0
7.9987 -81.2122 165.6304 0 0 0
-63.0816 -51.7698 42.001 0 0 0
-50.185 41.1857 0.0 71 71 71
-45.338 67.8529 50.0095 0 0 0
-21.8994 72.1923 0.2643 56 56 56
-100.8662 13.8687 38.3486 168 168 168
28.8368 43.1574 18.2831 61 61 61
-81.6061 -0.0 17.7232 25 25 25
80.0381 15.9206 50.0095 0 0 0
71.9693 38.4685 181.894 0 0 0
-57.0402 -57.0402 2.1141 35 35 35
-139.3947 13.4752 139.7274 204 204 204
62.8968 42.0264 204.0363 0 0 0
-51.9123 34.6865 18.2831 66 66 66
63.0816 51.7698 126.3354 0 0 0
-51.7698 -63.0816 154.5952 0 0 0
70.643 -29.2613 204.7591 0 0 0
74.1918 14.7577 204.0363 0 0 0
81.5129 0.0 7.6137 71 71 71
-88.5806 13.5124 140.8077 45 45 45
-71.9693 -38.4684 139.863 0 0 0
-38.4246 71.8871 7.6137 56 56 56
-142.9621 13.8687 54.9324 239 239 239
-75.3942 -31.5141 181.9055 0 0 0
-21.7481 71.6936 111.2496 0 0 0
23.8926 -57.6817 18.2831 81 81 81
-20.8211 -20.8211 18.2831 117 117 117
-47.6435 -58.0537 180.3578 0 0 0
63.0096 -51.7106 7.6137 71 71 71
-31.2294 75.3942 31.9205 15 15 15
38.4684 -71.9693 181.894 0 0 0
35.4023 -66.233 180.3578 0 0 0
-78.0913 26.5967 154.7081 0 0 0
80.0381 -15.9205 98.3747 0 0 0
63.0816 51.7698 146.7016 0 0 0
-150.6765 -0.0001 104.9894 214 214 214
-15.9207 80.038 50.0095 0 0 0
-145.2326 6.3325 48.5306 239 239 239
-161.3905 6.3325 79.4794 234 234 234
71.9693 38.4684 146.7016 0 0 0
-31.1936 -75.3081 196.3167 0 0 0
-88.5806 -13.513 53.7493 10 10 10
-15.9206 -80.0381 50.0095 0 0 0
-15.9206 -80.0381 126.3354 0 0 0
28.0769 -28.0769 18.2831 117 117 117
-104.875 -0.0 147.9386 193 193 193
-51.7698 -63.0816 31.9205 5 5 5
45.3379 67.853 31.9205 15 15 15
-51.7698 63.0816 18.8275 76 76 76
-150.5345 -6.342 111.1962 219 219 219
21.8992 72.1923 0.2643 45 45 45
63.0816 51.7698 50.0095 0 0 0
-45.338 67.8529 42.001 0 0 0
-163.6052 -0.0001 87.2787 219 219 219
10.1261 50.9077 18.2831 40 40 40
78.0912 23.6888 165.6304 0 0 0
-110.0012 13.8686 156.7021 188 188 188
63.0816 -51.7697 154.5952 0 0 0
79.117 -15.7373 2.1141 86 86 86
58.0537 -47.6435 180.3578 0 0 0
-121.8519 -13.6069 41.5724 193 193 193
-45.338 67.8529 31.9205 10 10 10
-69.2175 -28.6708 111.2496 0 0 0
-21.8993 -72.1923 0.2643 66 66 66
73.1387 -14.5482 42.2393 0 0 0
-112.9964 11.2825 161.9994 198 198 198
24.2944 45.4517 0.0 56 56 56
-81.6688 10.0279 73.7507 0 0 0
-78.0913 26.1244 126.155 0 0 0
62.004 41.4298 42.2393 0 0 0
-89.0207 -7.5843 161.2469 56 56 56
75.0498 31.0867 3.1711 45 45 45
-75.3942 -31.8382 70.3985 0 0 0
28.0769 28.077 18.2831 112 112 112
71.3597 21.6468 42.2393 0 0 0
78.0912 23.6888 139.863 0 0 0
-28.077 -28.0769 18.2831 96 96 96
-146.7445 6.3418 122.4971 178 178 178
-15.1951 -36.6843 18.2831 86 86 86
51.9122 -34.6866 18.2831 56 56 56
-107.6542 -6.3419 149.5331 188 188 188
81.6061 0.0 70.414 0 0 0
71.9693 -38.4684 31.9205 10 10 10
-7.9987 -81.2122 56.8864 0 0 0
-32.1537 -21.4844 0.0 96 96 96
-36.5178 68.3197 205.0 0 0 0
81.6061 0.0 146.7016 0 0 0
-75.3943 31.8381 126.2903 0 0 0
-14.9605 49.3179 0.0 45 45 45
63.0816 51.7698 31.9205 25 25 25
-78.0913 25.8396 165.7159 0 0 0
-7.9988 81.2122 42.001 0 0 0
-133.6913 11.2974 50.8033 224 224 224
-116.6864 -0.0001 45.3796 193 193 193
-24.483 16.359 18.2831 107 107 107
63.6748 -12.6657 0.0 81 81 81
67.0722 -44.8162 2.1141 66 66 66
-79.117 -15.7374 2.1141 25 25 25
21.748 -71.6936 111.2496 0 0 0
73.6587 -14.6516 180.3578 0 0 0
-144.7846 11.2812 143.6858 214 214 214
81.2122 7.9987 56.8864 0 0 0
-31.2294 75.3942 126.3354 0 0 0
-107.6542 6.3428 44.5332 188 188 188
81.2122 -7.9987 139.863 0 0 0
7.9986 81.2122 31.9205 25 25 25
-77.7346 23.5804 201.8289 0 0 0
81.2122 -7.9987 31.9205 15 15 15
-121.8598 13.875 154.8703 193 193 193
-26.5289 10.9886 0.0 112 112 112
-107.6542 -6.3429 44.5332 198 198 198
-53.9809 -36.0689 0.0 40 40 40
45.3379 -67.853 42.001 0 0 0
72.112 14.344 18.8548 35 35 35
-28.5374 68.8951 42.2393 0 0 0
-57.7043 57.7041 42.001 0 0 0
-69.7162 -6.8665 18.426 25 25 25
-107.8563 -0.0 30.2981 188 188 188
13.6668 68.7083 18.426 71 71 71
50.9076 10.1262 18.2831 51 51 51
36.4426 36.4427 0.0 66 66 66
-12.6657 -63.6748 0.0 81 81 81
-82.3271 -20.2676 49.3833 0 0 0
67.0721 44.8162 2.1141 66 66 66
39.5151 -3.8919 18.2831 102 102 102
19.8632 -47.954 18.2831 91 91 91
34.1043 18.2291 0.0 102 102 102
23.8754 15.953 0.0 142 142 142
40.1226 32.9278 18.2831 66 66 66
71.9693 38.4684 31.9205 10 10 10
65.7654 35.1524 42.2393 0 0 0
-79.9467 16.3295 196.3771 0 0 0
-53.9809 36.0688 0.0 86 86 86
-67.8531 45.3378 126.3354 0 0 0
-88.4292 16.1109 50.3224 30 30 30
-78.0913 26.9116 146.7804 0 0 0
-51.9122 -34.6866 18.2831 40 40 40
38.4683 71.9694 70.414 0 0 0
-23.6888 78.0912 70.414 0 0 0
57.7042 -57.7042 18.8275 86 86 86
-149.1687 11.2812 137.9333 178 178 178
-0.0001 81.5129 196.3167 0 0 0
-7.9988 81.2122 50.0095 0 0 0
-15.9207 80.038 139.863 0 0 0
58.0537 47.6435 180.3578 0 0 0
-80.0381 -17.6293 182.1355 0 0 0
-78.0913 24.8278 181.9399 0 0 0
-0.0001 81.6061 31.9205 25 25 25
-68.7083 13.6668 18.426 15 15 15
57.6817 23.8926 18.2831 35 35 35
-23.6888 78.0912 42.001 0 0 0
-7.9987 -81.2122 165.6304 0 0 0
-73.6587 -14.6516 180.3578 0 0 0
-37.0053 11.2254 0.0 76 76 76
-75.3943 31.514 181.9055 0 0 0
23.6886 78.0913 98.3747 0 0 0
31.1936 -75.3081 7.6137 91 91 91
-23.6887 -78.0913 154.5952 0 0 0
-98.223 6.3325 31.535 178 178 178
-31.2293 -75.3942 98.3747 0 0 0
-71.3597 -21.6467 42.2393 0 0 0
36.0688 53.9809 0.0 71 71 71
-28.6708 -69.2175 111.2496 0 0 0
-51.1741 62.3556 2.1141 76 76 76
-57.6384 57.6383 196.3167 0 0 0
-21.8007 71.867 180.3578 0 0 0
36.0689 -53.9809 0.0 91 91 91
-63.0816 -51.7698 70.414 0 0 0
12.1803 61.2346 18.2831 71 71 71
-80.667 -0.0 202.8859 0 0 0
-77.1926 -23.4161 2.1141 20 20 20
5.0515 51.2889 0.0 35 35 35
-151.0073 11.2974 79.9387 229 229 229
7.9895 81.1195 7.6137 71 71 71
-145.7668 6.3319 145.0147 214 214 214
-38.4684 -71.9693 165.6304 0 0 0
-46.6432 56.8347 18.8548 76 76 76
-38.4685 71.9693 126.3354 0 0 0
45.3379 67.853 154.5952 0 0 0
21.6467 -71.3597 42.2393 0 0 0
-49.318 14.9604 0.0 45 45 45
-38.4684 -71.9693 139.863 0 0 0
-20.5166 -10.9663 18.2831 132 132 132
-12.1803 -61.2346 18.2831 81 81 81
79.6725 15.8479 201.8289 0 0 0
-101.433 -6.3429 46.5576 168 168 168
38.4683 71.9694 139.863 0 0 0
-68.8952 28.5372 42.2393 0 0 0
7.9987 -81.2122 181.894 0 0 0
80.0381 15.9206 31.9205 0 0 0
-67.8531 45.3378 18.8275 81 81 81
-115.8496 13.875 156.3471 204 204 204
-122.6914 -0.0001 147.1297 188 188 188
-23.6887 -78.0913 42.001 0 0 0
-12.6658 63.6747 0.0 56 56 56
48.2618 -39.6074 18.2831 66 66 66
57.7042 -57.7042 154.5952 0 0 0
-151.0419 -0.0001 96.6086 219 219 219
-63.0817 51.7697 126.3354 0 0 0
75.3942 31.2293 126.3354 0 0 0
15.9206 -80.0381 139.863 0 0 0
64.8423 -34.6589 18.8548 76 76 76
-7.9988 81.2122 70.414 0 0 0
71.8871 38.4245 7.6137 61 61 61
45.3379 67.853 126.3354 0 0 0
-50.9077 -10.1262 18.2831 45 45 45
-127.9533 -11.2977 46.8095 173 173 173
63.0816 -51.7697 18.8275 71 71 71
0.0 -81.6061 98.3747 0 0 0
-64.6089 6.3634 0.0 15 15 15
78.0912 23.6888 42.001 0 0 0
-163.8843 -6.3324 95.79 224 224 224
72.1923 21.8993 0.2643 35 35 35
7.9986 81.2122 70.414 0 0 0
38.4683 71.9694 31.9205 0 0 0
49.3179 14.9605 0.0 61 61 61
-31.2294 75.3942 56.8864 0 0 0
-67.8531 45.3378 154.5952 0 0 0
31.2292 75.3942 42.001 0 0 0
-19.8632 -47.954 18.2831 71 71 71
36.7023 36.7024 18.2831 66 66 66
-57.6384 57.6383 7.6137 86 86 86
-45.338 67.8529 146.7016 0 0 0
-48.2618 39.6074 18.2831 61 61 61
14.6162 73.4809 111.2496 0 0 0
81.2122 7.9987 146.7016 0 0 0
15.9205 80.0381 154.5952 0 0 0
-10.9663 -20.5166 18.2831 127 127 127
-10.0545 -50.5474 0.0 81 81 81
49.6694 -15.067 18.2831 61 61 61
65.7655 -35.1524 42.2393 0 0 0
33.023 -61.7817 18.426 96 96 96
-163.6811 6.3309 103.8295 219 219 219
-127.9931 -11.2963 147.2935 204 204 204
-63.0817 51.7697 154.5952 0 0 0
30.6037 57.2557 0.0 51 51 51
-31.2294 75.3942 154.5952 0 0 0
7.7464 -38.9438 18.2831 102 102 102
-163.1312 6.3324 87.3815 229 229 229
-146.4825 -0.0001 121.7612 193 193 193
-153.5132 11.2972 91.7671 224 224 224
-52.7301 -52.7301 42.2393 0 0 0
-63.0816 -51.7698 146.7016 0 0 0
-83.0386 -9.2807 162.9612 40 40 40
5.6019 28.1629 0.0 112 112 112
62.4448 41.7243 180.3578 0 0 0
-57.6817 -23.8926 18.2831 25 25 25
-7.9988 81.2122 165.6304 0 0 0
51.7697 63.0817 139.863 0 0 0
-38.4685 71.9693 70.414 0 0 0
-23.6618 78.0021 7.6137 56 56 56
62.4343 0.0 18.2831 51 51 51
38.4684 -71.9693 126.3354 0 0 0
54.1521 44.4415 18.426 66 66 66
2.2802 23.1515 18.2831 142 142 142
69.385 -28.7402 180.3578 0 0 0
66.5328 35.5626 0.2643 61 61 61
57.6439 47.3072 42.2393 0 0 0
59.9803 24.8447 0.0 35 35 35
0.0 -81.2334 201.8289 0 0 0
-145.7998 -6.3321 145.0789 214 214 214
-0.0001 38.6709 0.0 66 66 66
57.7042 57.7043 139.863 0 0 0
23.5805 -77.7346 201.8289 0 0 0
-78.0912 -25.8397 165.7159 0 0 0
-67.8531 45.3378 139.863 0 0 0
-57.7042 -57.7042 126.3354 0 0 0
-20.3355 -67.037 18.426 71 71 71
-23.6888 78.0912 98.3747 0 0 0
38.4683 71.9694 165.6304 0 0 0
-153.4635 -0.0001 59.4253 234 234 234
-57.4408 57.4406 201.8289 0 0 0
-74.5716 -0.0 42.2393 61 61 61
-15.953 -23.8754 0.0 117 117 117
-128.2692 -6.3429 48.7973 183 183 183
-67.8531 45.3378 98.3747 0 0 0
75.3942 -31.2293 31.9205 25 25 25
67.5431 45.1309 201.8289 0 0 0
-58.0538 47.6434 180.3578 0 0 0
-0.0 -29.4454 18.2831 173 173 173
45.3379 67.853 56.8864 0 0 0
-38.4684 -71.9693 70.414 0 0 0
-23.6617 -78.0021 7.6137 71 71 71
15.9205 80.0381 31.9205 20 20 20
-24.2944 -45.4517 0.0 61 61 61
53.9809 -36.0688 0.0 61 61 61
73.4809 14.6163 111.2496 0 0 0
23.8754 -15.953 0.0 173 173 173
50.1849 41.1858 0.0 66 66 66
-113.4431 -6.3427 149.7294 198 198 198
-71.9693 -38.4684 98.3747 0 0 0
57.7042 57.7043 154.5952 0 0 0
6.1195 62.1329 18.2831 76 76 76
45.1309 -67.5431 201.8289 0 0 0
-67.8531 45.3378 146.7016 0 0 0
6.3634 -64.6089 0.0 71 71 71
-45.3379 -67.853 126.3354 0 0 0
-71.9693 -38.4684 126.3354 0 0 0
23.6887 -78.0913 181.894 0 0 0
71.9693 38.4684 50.0095 0 0 0
-73.1387 -14.5482 42.2393 15 15 15
52.7301 -52.7301 42.2393 0 0 0
18.8456 62.126 0.0 40 40 40
62.3557 -51.174 2.1141 71 71 71
-51.5334 62.7935 201.8289 0 0 0
81.1195 -7.9895 196.3167 0 0 0
45.3379 -67.853 139.863 0 0 0
-51.7698 -63.0816 56.8864 0 0 0
31.2293 -75.3942 126.3354 0 0 0
-51.7698 -63.0816 126.3354 0 0 0
23.6887 -78.0913 154.5952 0 0 0
-7.9988 81.2122 146.7016 0 0 0
-161.3905 -6.3327 79.4794 244 244 244
-0.0001 62.4343 18.2831 66 66 66
29.8926 24.5323 0.0 127 127 127
-62.7935 -51.5333 201.8289 0 0 0
0.0 -81.6061 181.894 0 0 0
-14.7179 -73.9921 0.2643 81 81 81
-28.7402 -69.3849 180.3578 0 0 0
-81.1195 -8.2744 7.4183 25 25 25
-28.8704 69.699 0.2643 66 66 66
-45.907 45.9069 0.0 86 86 86
31.2293 -75.3942 165.6304 0 0 0
-57.9137 47.5284 111.2496 0 0 0
39.8387 -32.6948 0.0 86 86 86
71.8871 38.4245 196.3167 0 0 0
-51.6545 -5.0875 18.2831 56 56 56
-69.699 -28.8703 0.2643 30 30 30
-78.0912 -26.9117 146.7804 0 0 0
20.3043 20.3044 0.0 142 142 142
-15.9206 -80.0381 31.9205 10 10 10
-16.359 24.4829 18.2831 132 132 132
14.7179 73.9921 0.2643 71 71 71
31.2292 75.3942 165.6304 0 0 0
-57.7043 57.7041 165.6304 0 0 0
38.4684 -71.9693 154.5952 0 0 0
37.576 70.2999 1.057 56 56 56
-83.0386 -9.2807 64.4794 0 0 0
23.5805 77.7346 201.8289 0 0 0
-51.7698 -63.0816 165.6304 0 0 0
80.667 0.0 2.1141 71 71 71
-163.8725 6.3321 95.6037 224 224 224
-63.0817 51.7697 146.7016 0 0 0
-71.9693 -38.4684 50.0095 0 0 0
-31.1937 75.3081 196.3167 0 0 0
-51.7698 63.0816 50.0095 0 0 0
-80.4785 19.3948 32.2121 30 30 30
79.6725 -15.8478 201.8289 0 0 0
50.5474 10.0545 0.0 51 51 51
44.1477 44.1477 18.2831 81 81 81
41.7243 -62.4448 180.3578 0 0 0
-118.9699 11.289 160.9707 198 198 198
-22.5897 -2.2249 0.0 147 147 147
-45.3379 -67.853 70.414 0 0 0
-131.4458 -6.3327 37.112 188 188 188
57.7042 -57.7042 181.894 0 0 0
45.3379 -67.853 18.8275 91 91 91
45.3379 -67.853 154.5952 0 0 0
75.0775 7.3945 0.2643 40 40 40
-61.1337 40.8481 18.8548 81 81 81
-38.4245 -71.8872 196.3167 0 0 0
-82.505 16.5255 36.1241 35 35 35
-133.7935 -11.2963 143.2192 209 209 209
80.0381 15.9206 56.8864 0 0 0
-82.0531 -0.0 169.2038 86 86 86
-144.454 11.2974 63.9326 239 239 239
-38.2927 -71.6406 201.8289 0 0 0
-86.1686 16.9426 153.6309 45 45 45
-7.3612 -74.7392 180.3578 0 0 0
10.0544 50.5474 0.0 40 40 40
-75.3942 -32.0351 49.9392 0 0 0
-141.7633 -6.342 132.2682 183 183 183
-78.0912 -26.1245 126.155 0 0 0
47.8591 58.3165 0.2643 71 71 71
-15.8479 79.6725 201.8289 0 0 0
-57.4407 -57.4407 201.8289 0 0 0
51.6544 -5.0875 18.2831 66 66 66
-156.2829 6.3325 65.5759 244 244 244
-71.9694 38.4683 18.8275 61 61 61
-71.9693 -38.4684 56.8864 0 0 0
54.778 54.7781 205.0 0 0 0
80.0381 -15.9205 165.6304 0 0 0
66.233 35.4023 180.3578 0 0 0
7.3092 -74.2116 42.2393 0 0 0
71.6936 21.7481 111.2496 0 0 0
29.431 -55.0615 18.2831 96 96 96
-138.6743 -0.0001 152.8356 214 214 214
-79.9467 -16.3296 196.377 0 0 0
-88.5751 -13.5072 158.9161 40 40 40
7.3945 -75.0775 0.2643 76 76 76
51.7698 -63.0816 42.001 0 0 0
19.8631 47.954 18.2831 45 45 45
67.5431 -45.1308 201.8289 0 0 0
-110.86 -0.0 45.2616 204 204 204
-79.6725 -15.8479 201.8289 0 0 0
45.3379 67.853 139.863 0 0 0
-124.9738 -11.3097 35.106 193 193 193
-22.06 33.015 18.2831 86 86 86
15.9023 79.9467 7.6137 71 71 71
-141.8405 -11.2963 134.0092 188 188 188
-36.6843 15.1951 18.2831 61 61 61
-0.0001 81.6061 98.3747 0 0 0
-67.853 -45.3379 154.5952 0 0 0
-139.0527 11.2974 56.0945 239 239 239
-62.2941 -41.6236 111.2496 0 0 0
-66.0733 35.3168 111.2496 0 0 0
-66.5329 35.5624 0.2643 61 61 61
-5.0876 51.6544 18.2831 35 35 35
-15.9207 80.038 42.001 0 0 0
-15.9207 80.038 31.9205 25 25 25
-66.7125 -35.6586 204.0363 0 0 0
75.3942 -31.2293 181.894 0 0 0
-15.9207 80.038 98.3747 0 0 0
-81.2122 10.277 98.1294 0 0 0
-66.233 -35.4023 180.3578 0 0 0
28.7147 0.0 0.0 158 158 158
-122.6043 -0.0001 161.5981 188 188 188
-38.4684 -71.9693 126.3354 0 0 0
-38.4685 71.9693 98.3747 0 0 0
28.6708 69.2176 111.2496 0 0 0
75.4417 0.0 0.2643 71 71 71
47.3072 -57.6439 42.2393 0 0 0
-53.3453 -53.3453 0.2643 35 35 35
7.9986 81.2122 98.3747 0 0 0
-72.1923 -21.8993 0.2643 20 20 20
-62.3558 51.1739 2.1141 81 81 81
38.92 58.2481 18.426 71 71 71
75.3942 31.2293 139.863 0 0 0
-28.8796 -5.7445 18.2831 137 137 137
51.7107 -63.0096 7.6137 76 76 76
47.6146 19.7227 0.0 56 56 56
39.6074 -48.2618 18.2831 71 71 71
-152.1959 -11.2824 60.3336 219 219 219
23.6886 78.0913 42.001 0 0 0
-67.853 -45.3379 181.894 0 0 0
0.0 -81.6061 70.414 0 0 0
-63.0817 51.7697 165.6304 0 0 0
-78.0912 -25.8397 31.7737 10 10 10
-5.7446 28.8796 18.2831 117 117 117
-59.9804 24.8446 0.0 35 35 35
-6.1196 62.1329 18.2831 81 81 81
-144.5326 -11.2823 49.6098 204 204 204
23.6887 -78.0913 18.8275 91 91 91
-23.4161 -77.1926 2.1141 71 71 71
28.5373 -68.8951 42.2393 0 0 0
-91.9283 7.0106 140.9086 66 66 66
-7.9987 -81.2122 31.9205 5 5 5
78.0912 23.6888 31.9205 15 15 15
-11.2683 -27.204 18.2831 132 132 132
-138.7419 -0.0001 59.952 234 234 234
80.0381 -15.9205 50.0095 0 0 0
70.2999 37.5761 203.943 0 0 0
62.4448 -41.7243 180.3578 0 0 0
12.1803 -61.2346 18.2831 76 76 76
-51.7107 63.0095 196.3167 0 0 0
23.6886 78.0913 165.6304 0 0 0
-7.9987 -81.2122 98.3747 0 0 0
31.2292 75.3942 181.894 0 0 0
-84.2391 18.4712 147.1324 40 40 40
54.4412 -55.0538 204.9826 0 0 0
-51.7698 63.0816 126.3354 0 0 0
38.4683 71.9694 126.3354 0 0 0
51.7697 63.0817 31.9205 20 20 20
-144.454 -11.2977 63.9326 219 219 219
-38.4684 -71.9693 146.7016 0 0 0
28.7402 -69.3849 180.3578 0 0 0
74.9942 -14.9172 204.7591 0 0 0
-43.1574 -28.8369 18.2831 35 35 35
-14.6517 73.6586 180.3578 0 0 0
-38.4685 71.9693 165.6304 0 0 0
-0.0001 74.5716 42.2393 0 0 0
-32.6948 -39.8387 0.0 61 61 61
-131.4777 -6.332 156.9708 209 209 209
-38.0258 71.141 2.1141 56 56 56
73.9921 14.718 0.2643 35 35 35
-100.9978 -11.2963 150.1773 112 112 112
-15.9531 23.8754 0.0 132 132 132
-7.9988 81.2122 98.3747 0 0 0
51.7698 -63.0816 50.0095 0 0 0
-144.306 6.3418 127.7053 183 183 183
-75.3942 -31.7989 98.344 0 0 0
57.0402 -57.0402 2.1141 81 81 81
-146.379 -13.869 59.6369 224 224 224
-23.6888 78.0912 18.8275 56 56 56
-61.2346 -12.1803 18.2831 15 15 15
67.7755 -45.2861 7.6137 66 66 66
74.5716 0.0 42.2393 0 0 0
71.9693 -38.4684 181.894 0 0 0
23.6887 -78.0913 139.863 0 0 0
-45.3379 -67.853 139.863 0 0 0
46.643 56.8348 18.8548 71 71 71
-45.4517 24.2944 0.0 45 45 45
-116.401 -6.4044 44.4543 198 198 198
-7.3092 -74.2116 42.2393 0 0 0
64.9222 0.0 0.0 56 56 56
71.9693 -38.4684 18.8275 81 81 81
-122.3505 6.3348 161.2795 193 193 193
-57.7043 57.7041 50.0095 0 0 0
-36.0689 -53.9809 0.0 51 51 51
-101.433 -6.3419 147.9771 132 132 132
28.8703 -69.699 0.2643 91 91 91
-57.2557 30.6037 0.0 61 61 61
-71.571 -29.6457 205.0 0 0 0
-75.3942 -32.035 146.7213 0 0 0
-29.431 -55.0615 18.2831 51 51 51
75.3942 -31.2293 126.3354 0 0 0
-151.0073 -11.2977 79.9387 234 234 234
0.0 -81.5129 7.6137 86 86 86
-38.4685 71.9693 50.0095 0 0 0
-139.2987 6.3418 135.8989 188 188 188
-160.2523 -11.2824 80.0438 239 239 239
45.3379 67.853 146.7016 0 0 0
-41.1858 50.1849 0.0 76 76 76
23.6887 -78.0913 165.6304 0 0 0
75.3942 31.2294 70.414 0 0 0
31.2292 75.3942 70.414 0 0 0
69.699 28.8703 0.2643 45 45 45
31.1936 75.3082 7.6137 51 51 51
26.5289 10.9887 0.0 163 163 163
-20.3355 67.037 18.426 56 56 56
51.9898 51.9899 18.8548 81 81 81
-10.9886 -26.5289 0.0 142 142 142
45.2861 67.7756 196.3167 0 0 0
-0.0 -62.4343 18.2831 66 66 66
-24.4676 -45.7756 18.2831 61 61 61
14.7179 -73.9921 0.2643 76 76 76
-94.6806 11.5935 146.7158 76 76 76
-145.2326 -6.3327 48.5306 209 209 209
-81.2122 9.1378 18.0458 15 15 15
-15.9207 80.038 126.3354 0 0 0
71.9693 38.4684 165.6304 0 0 0
-23.8926 -57.6817 18.2831 51 51 51
-156.6223 13.8686 83.0605 229 229 229
78.0912 23.6888 146.7016 0 0 0
-15.9206 -80.0381 154.5952 0 0 0
78.0913 -23.6887 70.414 0 0 0
-3.8919 -39.5151 18.2831 107 107 107
39.8387 32.6948 0.0 66 66 66
-86.3242 -14.2135 138.7596 15 15 15
21.8005 71.867 180.3578 0 0 0
74.5589 -7.3434 111.2496 0 0 0
-62.4448 -41.7243 180.3578 0 0 0
-101.433 6.3428 46.5576 178 178 178
-68.8951 -28.5373 42.2393 0 0 0
-161.9148 -11.2823 87.9256 224 224 224
71.9693 38.4684 126.3354 0 0 0
-163.1312 -0.0061 111.8723 224 224 224
22.4874 74.1313 205.0 0 0 0
71.1411 -38.0257 2.1141 76 76 76
-28.7147 -0.0 0.0 132 132 132
57.4407 -57.4407 201.8289 0 0 0
-66.0732 -35.3169 111.2496 0 0 0
32.6948 -39.8387 0.0 96 96 96
7.9987 -81.2122 98.3747 0 0 0
-162.6356 -6.3361 111.9292 219 219 219
58.3165 47.8592 0.2643 61 61 61
24.483 -16.359 18.2831 173 173 173
47.6434 58.0538 180.3578 0 0 0
-75.3943 31.8381 70.3985 0 0 0
-38.4684 -71.9693 98.3747 0 0 0
-34.6589 -64.8423 18.8548 56 56 56
-110.1327 -11.2976 41.9415 204 204 204
15.9205 80.0381 42.001 0 0 0
31.2292 75.3942 31.9205 0 0 0
67.853 -45.3379 98.3747 0 0 0
-35.1525 65.7654 42.2393 0 0 0
24.4676 -45.7756 18.2831 86 86 86
-69.3849 -28.7402 180.3578 0 0 0
-45.9069 -45.907 0.0 35 35 35
7.9987 -81.2122 18.8275 76 76 76
57.7042 57.7043 98.3747 0 0 0
47.3071 57.644 42.2393 0 0 0
81.6061 0.0 98.3747 0 0 0
74.7392 7.3612 180.3578 0 0 0
-75.3082 31.2647 7.6094 35 35 35
-75.3942 -31.5141 18.8104 25 25 25
31.2293 -75.3942 56.8864 0 0 0
38.4683 71.9694 50.0095 0 0 0
-133.8635 -13.8688 147.8369 214 214 214
79.9467 15.9024 7.6137 35 35 35
-7.9987 -81.2122 70.414 0 0 0
-149.2135 11.2974 74.2441 234 234 234
10.1262 -50.9076 18.2831 86 86 86
-51.7698 63.0816 146.7016 0 0 0
63.0816 51.7698 70.414 0 0 0
-80.8413 -7.9622 201.8289 0 0 0
-75.3943 31.7988 98.344 0 0 0
-35.317 66.0732 111.2496 0 0 0
-45.2862 67.7755 196.3167 0 0 0
-91.3338 -14.8838 39.1286 91 91 91
51.5377 0.0 0.0 61 61 61
81.2122 -7.9987 181.894 0 0 0
-82.0531 -0.0 121.3794 0 0 0
33.015 22.0599 18.2831 102 102 102
-20.3044 20.3043 0.0 132 132 132
21.7479 71.6936 111.2496 0 0 0
-82.0531 -0.0 74.8795 0 0 0
14.9173 -74.9942 204.7591 0 0 0
75.3081 -31.1936 196.3167 0 0 0
-28.6328 -42.8521 0.0 66 66 66
-86.7943 7.982 59.8725 5 5 5
-62.2942 41.6235 111.2496 0 0 0
81.6061 0.0 50.0095 0 0 0
-147.4855 -11.2963 124.0413 188 188 188
-38.4684 -71.9693 181.894 0 0 0
-119.3988 -6.3463 148.7521 193 193 193
-71.9694 38.4683 154.5952 0 0 0
51.7107 -63.0096 196.3167 0 0 0
81.2122 -7.9987 70.414 0 0 0
-52.7301 52.73 42.2393 0 0 0
0.0 -75.1017 180.3578 0 0 0
51.7698 -63.0816 98.3747 0 0 0
-38.4684 -71.9693 154.5952 0 0 0
-82.3271 -19.6989 140.6691 15 15 15
-57.0402 57.0401 2.1141 86 86 86
23.6887 -78.0913 70.414 0 0 0
52.9768 -52.9768 111.2496 0 0 0
-81.2122 -9.1379 182.6309 0 0 0
-15.7373 -79.117 2.1141 81 81 81
51.9122 34.6867 18.2831 56 56 56
-80.0381 19.338 98.1601 0 0 0
-57.7043 57.7041 98.3747 0 0 0
39.5151 3.8919 18.2831 96 96 96
-153.0905 -6.3327 59.5158 229 229 229
-18.1236 59.7452 18.2831 51 51 51
-47.8591 -58.3165 0.2643 45 45 45
-31.2293 -75.3942 31.9205 35 35 35
-140.9234 11.2821 45.8144 224 224 224
15.9205 80.0381 50.0095 0 0 0
67.853 45.338 18.8275 66 66 66
-23.6887 -78.0913 139.863 0 0 0
-21.6468 71.3597 42.2393 0 0 0
81.6061 0.0 56.8864 0 0 0
-51.289 5.0515 0.0 45 45 45
15.9205 80.0381 181.894 0 0 0
-70.643 29.2612 204.7591 0 0 0
-82.505 16.5255 135.56 15 15 15
-35.3169 -66.0732 111.2496 0 0 0
-38.4684 -71.9693 50.0095 0 0 0
-28.6709 69.2175 111.2496 0 0 0
47.6435 -58.0537 180.3578 0 0 0
7.9986 81.2122 146.7016 0 0 0
-63.0816 -51.7698 56.8864 0 0 0
-33.015 -22.0599 18.2831 86 86 86
78.0021 -23.6616 7.6137 81 81 81
-57.7042 -57.7042 139.863 0 0 0
-53.3454 53.3452 0.2643 86 86 86
-57.7042 -57.7042 42.001 0 0 0
-28.8369 43.1574 18.2831 76 76 76
-153.7126 -11.2817 132.0143 188 188 188
24.4675 45.7756 18.2831 56 56 56
62.7275 -41.9131 0.2643 66 66 66
-51.6545 5.0875 18.2831 45 45 45
21.8993 -72.1923 0.2643 91 91 91
28.1629 5.602 0.0 163 163 163
-63.0817 51.7697 42.001 0 0 0
-77.7346 -23.5805 201.8289 0 0 0
-7.9987 -81.2122 126.3354 0 0 0
-7.9987 -81.2122 146.7016 0 0 0
80.2776 7.9067 2.1141 40 40 40
78.0913 -23.6887 181.894 0 0 0
18.1235 -59.7452 18.2831 76 76 76
-24.4676 45.7755 18.2831 71 71 71
-78.0912 -25.9671 98.2521 0 0 0
-73.1387 14.5481 42.2393 30 30 30
80.0381 -15.9205 56.8864 0 0 0
51.1739 62.3557 2.1141 71 71 71
21.8006 -71.867 180.3578 0 0 0
71.9693 38.4684 42.001 0 0 0
-75.3943 31.9562 41.9395 0 0 0
0.0 -74.9205 111.2496 0 0 0
47.8591 -58.3165 0.2643 76 76 76
-146.7445 -6.342 122.4971 188 188 188
-147.8996 -6.3429 75.8721 239 239 239
57.7042 57.7043 42.001 0 0 0
-75.0775 -7.3945 0.2643 25 25 25
-7.5444 37.9278 0.0 86 86 86
-61.1336 -40.8482 18.8548 40 40 40
-45.338 67.8529 18.8275 61 61 61
-7.9622 -80.8413 201.8289 0 0 0
-7.3945 -75.0775 0.2643 76 76 76
15.9206 -80.0381 98.3747 0 0 0
-11.2683 27.204 18.2831 132 132 132
-71.9693 -38.4684 154.5952 0 0 0
7.9987 -81.2122 139.863 0 0 0
57.7042 57.7043 18.8275 81 81 81
7.3433 74.5589 111.2496 0 0 0
-121.9873 -11.3015 149.8918 188 188 188
-143.6922 -6.3429 66.0263 229 229 229
41.1857 -50.185 0.0 76 76 76
-51.7106 -63.0096 7.6137 45 45 45
77.1926 23.4162 2.1141 35 35 35
-30.6039 57.2556 0.0 45 45 45
0.0 -74.5716 42.2393 0 0 0
-149.2479 -6.3327 53.6583 224 224 224
-67.853 -45.3379 70.414 0 0 0
-80.4785 19.6682 128.4411 0 0 0
38.4842 3.7904 0.0 112 112 112
-28.8703 -69.699 0.2643 61 61 61
-146.281 -0.0001 145.4097 214 214 214
38.4683 71.9694 18.8275 56 56 56
-59.7452 18.1234 18.2831 25 25 25
-149.3667 -11.2814 138.318 188 188 188
-104.523 6.3325 30.8803 183 183 183
-31.2293 -75.3942 56.8864 0 0 0
-72.1924 21.8992 0.2643 30 30 30
81.6061 0.0 42.001 0 0 0
-144.5326 11.2821 49.6098 239 239 239
-127.8615 -13.8688 152.0096 204 204 204
57.7042 57.7043 31.9205 20 20 20
-75.3943 32.0349 146.7213 0 0 0
-23.6887 -78.0913 50.0095 0 0 0
67.853 -45.3379 181.894 0 0 0
63.0816 51.7698 18.8275 61 61 61
51.7697 63.0817 42.001 0 0 0
-80.0381 17.6292 182.1355 0 0 0
-23.1515 -2.2802 18.2831 147 147 147
23.6886 78.0913 181.894 0 0 0
-7.9066 -80.2776 2.1141 76 76 76
-149.662 13.8687 64.9473 244 244 244
-151.4312 6.3417 105.4831 219 219 219
51.7697 63.0817 146.7016 0 0 0
-162.6238 6.3278 111.7428 219 219 219
57.7042 -57.7042 165.6304 0 0 0
-51.7698 -63.0816 42.001 0 0 0
38.4683 71.9694 154.5952 0 0 0
-31.2294 75.3942 139.863 0 0 0
63.0816 51.7698 154.5952 0 0 0
-97.7162 -13.8688 153.7167 66 66 66
0.0 -81.6061 31.9205 25 25 25
10.9886 26.5289 0.0 117 117 117
-41.9132 62.7274 0.2643 61 61 61
-0.0001 81.6061 50.0095 0 0 0
-82.3271 -19.6989 42.1926 15 15 15
-150.0479 -0.0001 88.0369 229 229 229
67.853 -45.3379 139.863 0 0 0
-23.5805 -77.7346 201.8289 0 0 0
78.0913 -23.6887 98.3747 0 0 0
75.3942 -31.2293 154.5952 0 0 0
-47.8592 58.3164 0.2643 71 71 71
57.7042 57.7043 181.894 0 0 0
-140.357 -13.4656 145.1857 219 219 219
7.3944 75.0775 0.2643 71 71 71
-110.5079 6.3325 30.655 188 188 188
67.853 -45.3379 56.8864 0 0 0
-86.7848 7.9803 161.2457 81 81 81
80.038 15.9206 70.414 0 0 0
-140.9234 -11.2823 45.8144 193 193 193
7.9986 81.2122 56.8864 0 0 0
-83.3943 -0.0 163.5915 86 86 86
-158.3351 13.8685 102.4615 214 214 214
-80.0381 17.6292 18.5468 20 20 20
31.2293 -75.3942 181.894 0 0 0
-101.725 -0.0 47.7584 173 173 173
-80.667 -0.0 2.1141 20 20 20
-28.7403 69.3849 180.3578 0 0 0
-75.3943 31.9562 139.8465 0 0 0
-133.7936 11.2961 143.2192 204 204 204
-51.7698 63.0816 56.8864 0 0 0
71.9693 38.4684 18.8275 61 61 61
15.9206 -80.0381 42.001 0 0 0
-51.7698 63.0816 154.5952 0 0 0
-71.867 -21.8006 180.3578 0 0 0
-152.4947 11.2974 86.0095 229 229 229
23.6887 -78.0913 31.9205 30 30 30
-97.7162 13.8686 153.7167 86 86 86
71.9693 -38.4684 42.001 0 0 0
-57.6383 -57.6384 7.6137 35 35 35
15.7373 -79.117 2.1141 76 76 76
-67.853 -45.3379 98.3747 0 0 0
-51.905 -0.0 18.2831 56 56 56
-157.959 -11.2824 72.7171 239 239 239
-41.6236 -62.2941 111.2496 0 0 0
5.7445 -28.8796 18.2831 158 158 158
-15.9207 80.038 18.8275 66 66 66
-110.86 -0.0 148.8409 209 209 209
34.6866 -51.9122 18.2831 86 86 86
-82.505 -16.5256 160.1085 25 25 25
23.6887 -78.0913 126.3354 0 0 0
-75.3943 31.9562 154.6234 0 0 0
42.852 28.6328 0.0 66 66 66
-92.2293 -0.0 139.5211 76 76 76
51.174 -62.3557 2.1141 76 76 76
71.9693 38.4685 98.3747 0 0 0
-81.6688 -10.028 122.5082 0 0 0
-0.0001 81.5129 7.6137 76 76 76
-7.9988 81.2122 126.3354 0 0 0
-27.204 -11.2683 18.2831 132 132 132
-86.1685 -16.9428 41.8302 30 30 30
23.6887 -78.0913 50.0095 0 0 0
-38.9438 -7.7464 18.2831 102 102 102
-83.0386 9.2807 131.7794 0 0 0
-139.0527 -11.2977 56.0945 204 204 204
-7.9988 81.2122 154.5952 0 0 0
-45.1309 67.543 201.8289 0 0 0
78.0912 23.6888 18.8275 35 35 35
-71.8872 38.4244 196.3167 0 0 0
80.0381 -15.9205 18.8275 86 86 86
-151.8611 -11.2964 112.3017 219 219 219
-82.505 -16.5256 60.7048 0 0 0
-65.7655 -35.1524 42.2393 0 0 0
71.9693 38.4685 139.863 0 0 0
-27.3445 -27.3445 0.0 107 107 107
-58.3165 -47.8591 0.2643 35 35 35
-145.5609 -0.0001 48.3318 224 224 224
80.0381 -15.9205 181.894 0 0 0
5.7445 28.8796 18.2831 112 112 112
67.9281 -28.1367 18.8548 76 76 76
-51.7698 63.0816 139.863 0 0 0
-83.3943 -0.0 66.0376 0 0 0
78.0021 -23.6616 196.3167 0 0 0
-88.4312 -16.5775 148.7681 30 30 30
57.2556 -30.6038 0.0 61 61 61
-63.6748 12.6656 0.0 20 20 20
-14.718 73.992 0.2643 61 61 61
-35.4023 -66.233 180.3578 0 0 0
-158.2649 -6.3361 126.1793 188 188 188
-155.2679 -0.0016 132.8226 193 193 193
-51.7698 63.0816 70.414 0 0 0
-31.2293 -75.3942 181.894 0 0 0
-18.1235 -59.7452 18.2831 56 56 56
-71.9693 -38.4684 42.001 0 0 0
73.1387 14.5482 42.2393 0 0 0
-75.3942 -31.9563 139.8465 0 0 0
-154.6647 13.8686 76.3212 229 229 229
67.8529 45.338 154.5952 0 0 0
0.0 -81.6061 126.3354 0 0 0
30.8699 -74.5266 2.1141 91 91 91
66.0732 -35.3168 111.2496 0 0 0
-71.9694 38.4683 70.414 0 0 0
14.6516 -73.6586 180.3578 0 0 0
24.4829 16.359 18.2831 142 142 142
74.9205 0.0 111.2496 0 0 0
-31.2293 -75.3942 50.0095 0 0 0
-80.4785 19.3948 164.8206 30 30 30
-62.4449 41.7242 180.3578 0 0 0
7.9067 -80.2776 2.1141 71 71 71
-47.954 -19.8632 18.2831 40 40 40
75.3942 -31.2293 139.863 0 0 0
-143.3487 -0.0001 67.086 239 239 239
71.9693 -38.4684 146.7016 0 0 0
69.3849 28.7402 180.3578 0 0 0
-51.5333 -62.7935 201.8289 0 0 0
57.7042 -57.7042 126.3354 0 0 0
75.3942 -31.2293 98.3747 0 0 0
0.0 -64.9222 0.0 71 71 71
71.9693 -38.4684 126.3354 0 0 0
62.3557 51.174 2.1141 61 61 61
-94.6805 -11.5949 48.1022 86 86 86
51.2889 5.0515 0.0 56 56 56
-63.0816 -51.7698 139.863 0 0 0
-57.7043 57.7041 31.9205 15 15 15
-7.9897 81.1195 196.3167 0 0 0
-57.7043 57.7041 70.414 0 0 0
-163.6988 -6.3332 104.1091 214 214 214
-63.0817 51.7697 56.8864 0 0 0
-162.4715 -11.2819 104.0463 219 219 219
-67.5432 45.1307 201.8289 0 0 0
-7.3613 74.7392 180.3578 0 0 0
-41.1857 -50.185 0.0 45 45 45
-19.8633 47.9539 18.2831 56 56 56
-31.2293 -75.3942 18.8275 56 56 56
-107.2039 11.2821 31.8593 188 188 188
80.0381 -15.9205 31.9205 25 25 25
-42.852 -28.6328 0.0 40 40 40
-127.8615 13.8685 152.0096 209 209 209
-45.338 67.8529 165.6304 0 0 0
67.853 -45.3379 70.414 0 0 0
57.6384 -57.6383 7.6137 81 81 81
-79.9467 16.3295 7.5435 15 15 15
-20.8211 20.821 18.2831 122 122 122
15.9205 80.0381 165.6304 0 0 0
-38.4685 71.9693 154.5952 0 0 0
-82.505 -16.5256 135.56 5 5 5
45.907 -45.9069 0.0 81 81 81
31.2293 -75.3942 70.414 0 0 0
29.4454 0.0 18.2831 158 158 158
78.0913 -23.6887 50.0095 0 0 0
7.3434 -74.5589 111.2496 0 0 0
14.7987 -35.7273 0.0 112 112 112
81.6061 0.0 18.8275 66 66 66
-100.9827 11.2821 32.627 173 173 173
-64.8424 34.6588 18.8548 61 61 61
-62.7274 -41.9131 0.2643 35 35 35
-79.9467 -16.3296 7.5435 25 25 25
72.1923 -21.8993 0.2643 81 81 81
-51.7698 -63.0816 50.0095 0 0 0
-75.3942 -31.7671 31.8838 0 0 0
62.126 18.8457 0.0 25 25 25
51.7697 63.0817 56.8864 0 0 0
0.0 -81.6061 18.8275 86 86 86
