X Y Z R G B
-0.17811993 0.16875668 1.0627133 0.0 0.0 0.0
-0.17945194 0.16325304 1.0568482 0.0 0.0 0.0
-0.18081616 0.16266729 1.0571096 0.0 0.0 0.0
-0.19579637 0.20414959 1.0306625 0.0 0.0 0.0
-0.19757463 0.20329398 1.0310687 0.0 0.0 0.0
-0.17797594 0.16752361 1.0611999 0.0 0.0 0.0
-0.19417948 0.20683949 1.0337477 0.0 0.0 0.0
-0.20247062 0.20403965 1.0372032 0.0 0.0 0.0
-0.20319469 0.2035173 1.0374928 0.0 0.0 0.0
-0.17965357 0.16414887 1.0585952 0.0 0.0 0.0
-0.18055575 0.16379318 1.0587455 0.0 0.0 0.0
-0.18634084 0.16706248 1.0653892 0.0 0.0 0.0
-0.18760176 0.16674696 1.06547 0.0 0.0 0.0
-0.19762391 0.20225386 1.0293957 0.0 0.0 0.0
-0.19770576 0.20262939 1.0301059 0.0 0.0 0.0
-0.1978453 0.20216803 1.0294317 0.0 0.0 0.0
-0.19743524 0.20121172 1.0277514 0.0 0.0 0.0
-0.19780722 0.20104045 1.0278308 0.0 0.0 0.0
-0.1959831 0.20521383 1.0322913 0.0 0.0 0.0
-0.19792798 0.20442319 1.0326322 0.0 0.0 0.0
-0.17814934 0.16873811 1.062723 0.0 0.0 0.0
-0.17982607 0.16537255 1.0601122 0.0 0.0 0.0
-0.1809452 0.16492265 1.0603049 0.0 0.0 0.0
-0.18146676 0.16241424 1.0572157 0.0 0.0 0.0
-0.1978249 0.20315659 1.0311381 0.0 0.0 0.0
-0.19616899 0.20628659 1.0339143 0.0 0.0 0.0
-0.19772023 0.20554951 1.0342623 0.0 0.0 0.0
-0.18000075 0.16657282 1.0616456 0.0 0.0 0.0
-0.1814445 0.16605283 1.0618513 0.0 0.0 0.0
-0.18165551 0.16345529 1.0588607 0.0 0.0 0.0
-0.20457011 0.20224425 1.0382425 0.0 0.0 0.0
-0.2049474 0.20193212 1.0384218 0.0 0.0 0.0
-0.2065888 0.20034632 1.039364 0.0 0.0 0.0
-0.1883263 0.16655502 1.065524 0.0 0.0 0.0
-0.19945203 0.20035118 1.0281339 0.0 0.0 0.0
-0.20106052 0.19946358 1.0285823 0.0 0.0 0.0
-0.19963779 0.20142682 1.0297546 0.0 0.0 0.0
-0.20097512 0.20059037 1.0301979 0.0 0.0 0.0
-0.19799666 0.20438942 1.0326484 0.0 0.0 0.0
-0.18016307 0.16791135 1.0630821 0.0 0.0 0.0
-0.18152559 0.16718073 1.0634466 0.0 0.0 0.0
-0.18183614 0.16458854 1.0604411 0.0 0.0 0.0
-0.18346834 0.1617254 1.0574776 0.0 0.0 0.0
-0.19983487 0.20237221 1.0314673 0.0 0.0 0.0
-0.20092264 0.20171745 1.0318093 0.0 0.0 0.0
-0.19819947 0.20527059 1.0344059 0.0 0.0 0.0
-0.18200637 0.16583812 1.06194 0.0 0.0 0.0
-0.18364619 0.16288882 1.0590366 0.0 0.0 0.0
-0.20668671 0.20025776 1.0394161 0.0 0.0 0.0
-0.20801191 0.19875923 1.0403321 0.0 0.0 0.0
-0.20149828 0.19915879 1.0287495 0.0 0.0 0.0
-0.20330583 0.19788107 1.0294533 0.0 0.0 0.0
-0.19029462 0.16624132 1.0655226 0.0 0.0 0.0
-0.20169759 0.20008047 1.0304786 0.0 0.0 0.0
-0.20351589 0.19900967 1.0310338 0.0 0.0 0.0
-0.20002984 0.20334347 1.0331614 0.0 0.0 0.0
-0.20085199 0.20284449 1.0334229 0.0 0.0 0.0
-0.18384825 0.16377929 1.0607878 0.0 0.0 0.0
-0.18220457 0.1667715 1.0636609 0.0 0.0 0.0
-0.18545374 0.16121881 1.0576116 0.0 0.0 0.0
-0.18588993 0.16110058 1.0576459 0.0 0.0 0.0
-0.20189287 0.20104662 1.0321763 0.0 0.0 0.0
-0.20329393 0.20013584 1.0326653 0.0 0.0 0.0
-0.20022543 0.20430753 1.0348607 0.0 0.0 0.0
-0.20082179 0.20397176 1.0350316 0.0 0.0 0.0
-0.18402408 0.16496654 1.0623304 0.0 0.0 0.0
-0.18584678 0.16448238 1.062467 0.0 0.0 0.0
-0.18562773 0.16242574 1.0591402 0.0 0.0 0.0
-0.18698613 0.16223395 1.0591216 0.0 0.0 0.0
-0.20357101 0.19766578 1.0295761 0.0 0.0 0.0
-0.2055708 0.19629873 1.0303217 0.0 0.0 0.0
-0.20887062 0.19751024 1.0411236 0.0 0.0 0.0
-0.20917571 0.19717078 1.0413307 0.0 0.0 0.0
-0.21032654 0.19558227 1.0423307 0.0 0.0 0.0
-0.19225483 0.16601926 1.0654567 0.0 0.0 0.0
-0.20374773 0.19884287 1.031126 0.0 0.0 0.0
-0.20556901 0.19742607 1.0319271 0.0 0.0 0.0
-0.20208527 0.20204632 1.0338506 0.0 0.0 0.0
-0.20324908 0.20126286 1.0342758 0.0 0.0 0.0
-0.18580551 0.16359144 1.0606979 0.0 0.0 0.0
-0.18598188 0.16432466 1.0622252 0.0 0.0 0.0
-0.18731351 0.16336322 1.0606881 0.0 0.0 0.0
-0.18420342 0.16611412 1.0639009 0.0 0.0 0.0
-0.18744931 0.16059841 1.0578256 0.0 0.0 0.0
-0.20396499 0.19956124 1.0329978 0.0 0.0 0.0
-0.20517781 0.19855131 1.0335788 0.0 0.0 0.0
-0.202278 0.20304203 1.0355277 0.0 0.0 0.0
-0.20308013 0.20238933 1.0359011 0.0 0.0 0.0
-0.18601067 0.16444652 1.0624738 0.0 0.0 0.0
-0.18603228 0.16463865 1.0626661 0.0 0.0 0.0
-0.18759453 0.16213033 1.0591259 0.0 0.0 0.0
-0.20563823 0.19623582 1.0303589 0.0 0.0 0.0
-0.20730956 0.1947134 1.0312524 0.0 0.0 0.0
-0.2110717 0.19456901 1.0429674 0.0 0.0 0.0
-0.21128292 0.1949894 1.0447736 0.0 0.0 0.0
-0.21146604 0.1939936 1.0433323 0.0 0.0 0.0
-0.21201214 0.19240168 1.044404 0.0 0.0 0.0
-0.21257384 0.19080994 1.0454737 0.0 0.0 0.0
-0.21301603 0.18921742 1.0465579 0.0 0.0 0.0
-0.21341015 0.18762466 1.0476476 0.0 0.0 0.0
-0.21376936 0.18443669 1.0498775 0.0 0.0 0.0
-0.21348388 0.18284026 1.0510476 0.0 0.0 0.0
-0.21314257 0.18124337 1.052224 0.0 0.0 0.0
-0.20583944 0.19713511 1.0321037 0.0 0.0 0.0
-0.20714067 0.1958399 1.0328776 0.0 0.0 0.0
-0.19416934 0.16631317 1.0650287 0.0 0.0 0.0
-0.20417714 0.20033802 1.0348285 0.0 0.0 0.0
-0.20488623 0.19967711 1.0352185 0.0 0.0 0.0
-0.18777205 0.1632975 1.0606825 0.0 0.0 0.0
-0.18616445 0.16588245 1.0638416 0.0 0.0 0.0
-0.18803193 0.16562201 1.0638138 0.0 0.0 0.0
-0.18941307 0.16033582 1.0577881 0.0 0.0 0.0
-0.20606524 0.19775838 1.0340421 0.0 0.0 0.0
-0.20686965 0.19696569 1.0345149 0.0 0.0 0.0
-0.20821533 0.19537833 1.0354918 0.0 0.0 0.0
-0.20437013 0.20133135 1.0365071 0.0 0.0 0.0
-0.20508654 0.20080559 1.0368 0.0 0.0 0.0
-0.18796755 0.16426215 1.0623815 0.0 0.0 0.0
-0.18958323 0.16158675 1.0592859 0.0 0.0 0.0
-0.20776932 0.19408511 1.0316476 0.0 0.0 0.0
-0.20840594 0.19312464 1.0322591 0.0 0.0 0.0
-0.20962074 0.19153638 1.0332514 0.0 0.0 0.0
-0.20626388 0.19868776 1.0357659 0.0 0.0 0.0
-0.20694903 0.19809344 1.0361108 0.0 0.0 0.0
-0.20838253 0.19650656 1.0370775 0.0 0.0 0.0
-0.19609801 0.16644771 1.0647124 0.0 0.0 0.0
-0.18974751 0.16290304 1.0607377 0.0 0.0 0.0
-0.20801954 0.19443192 1.0337805 0.0 0.0 0.0
-0.20821396 0.19536182 1.0354688 0.0 0.0 0.0
-0.20813641 0.19425043 1.0338961 0.0 0.0 0.0
-0.20949185 0.19266304 1.0348718 0.0 0.0 0.0
-0.21375772 0.18615422 1.0486555 0.0 0.0 0.0
-0.21378826 0.18580921 1.0488979 0.0 0.0 0.0
-0.21377926 0.18609838 1.048835 0.0 0.0 0.0
-0.21378829 0.1860318 1.048739 0.0 0.0 0.0
-0.18812938 0.1656079 1.0638127 0.0 0.0 0.0
-0.19135784 0.16028832 1.0575998 0.0 0.0 0.0
-0.20821686 0.19537571 1.0354936 0.0 0.0 0.0
-0.20927688 0.19378917 1.0365027 0.0 0.0 0.0
-0.20648453 0.19936816 1.0376643 0.0 0.0 0.0
-0.20660713 0.19989997 1.0387262 0.0 0.0 0.0
-0.20662369 0.19921914 1.0377544 0.0 0.0 0.0
-0.20806205 0.19763215 1.0387207 0.0 0.0 0.0
-0.18992122 0.16411455 1.0622635 0.0 0.0 0.0
-0.19153717 0.16143531 1.0591706 0.0 0.0 0.0
-0.20999248 0.19089471 1.0336663 0.0 0.0 0.0
-0.21047488 0.18994616 1.034287 0.0 0.0 0.0
-0.2116379 0.18835774 1.0352857 0.0 0.0 0.0
-0.21220209 0.18676586 1.0363551 0.0 0.0 0.0
-0.20840007 0.19647914 1.0370951 0.0 0.0 0.0
-0.20941395 0.19491746 1.0380919 0.0 0.0 0.0
-0.21051128 0.19332851 1.0390984 0.0 0.0 0.0
-0.19170432 0.16271998 1.0606446 0.0 0.0 0.0
-0.1980374 0.16646086 1.0644815 0.0 0.0 0.0
-0.21021558 0.19154772 1.0355841 0.0 0.0 0.0
-0.21049161 0.19107375 1.03589 0.0 0.0 0.0
-0.21152064 0.18948451 1.0369047 0.0 0.0 0.0
-0.21228096 0.18789375 1.0379511 0.0 0.0 0.0
-0.21329547 0.17673475 1.0457848 0.0 0.0 0.0
-0.19010891 0.16516739 1.0639005 0.0 0.0 0.0
-0.19332406 0.1599983 1.0575818 0.0 0.0 0.0
-0.19188727 0.16382545 1.0622445 0.0 0.0 0.0
-0.19347541 0.16146171 1.0589303 0.0 0.0 0.0
-0.21041122 0.19251069 1.037284 0.0 0.0 0.0
-0.2105666 0.1929982 1.0386212 0.0 0.0 0.0
-0.21062855 0.19220176 1.037479 0.0 0.0 0.0
-0.21122335 0.19061013 1.0385451 0.0 0.0 0.0
-0.21207295 0.18901998 1.0395809 0.0 0.0 0.0
-0.21250926 0.18742752 1.0406656 0.0 0.0 0.0
-0.21329239 0.17945699 1.0462544 0.0 0.0 0.0
-0.21332037 0.17786227 1.0473874 0.0 0.0 0.0
-0.20865259 0.19680066 1.0392455 0.0 0.0 0.0
-0.20925333 0.1960438 1.0397162 0.0 0.0 0.0
-0.21038172 0.19445521 1.040719 0.0 0.0 0.0
-0.21231978 0.18652897 1.0365106 0.0 0.0 0.0
-0.21300845 0.18517545 1.0373961 0.0 0.0 0.0
-0.21326631 0.18358187 1.038502 0.0 0.0 0.0
-0.21374707 0.18198968 1.0395812 0.0 0.0 0.0
-0.21381809 0.18039507 1.0407093 0.0 0.0 0.0
-0.21378559 0.1788 1.0418493 0.0 0.0 0.0
-0.2135464 0.17720377 1.0430138 0.0 0.0 0.0
-0.21335781 0.17481098 1.04474 0.0 0.0 0.0
-0.21334818 0.17598741 1.0447141 0.0 0.0 0.0
-0.21339576 0.1756079 1.0441676 0.0 0.0 0.0
-0.21063396 0.19316728 1.0391992 0.0 0.0 0.0
-0.21142222 0.19173862 1.0401269 0.0 0.0 0.0
-0.21198224 0.19014677 1.0411969 0.0 0.0 0.0
-0.21268098 0.18855573 1.0422508 0.0 0.0 0.0
-0.21302633 0.18696272 1.043346 0.0 0.0 0.0
-0.21344523 0.18058525 1.0478414 0.0 0.0 0.0
-0.21314199 0.17898867 1.0490136 0.0 0.0 0.0
-0.19364667 0.16269942 1.0604376 0.0 0.0 0.0
-0.19995086 0.166766 1.0640452 0.0 0.0 0.0
-0.20055325 0.16681887 1.0639387 0.0 0.0 0.0
-0.19207817 0.16484247 1.0639068 0.0 0.0 0.0
-0.21255668 0.18702577 1.038538 0.0 0.0 0.0
-0.21268171 0.18667983 1.0395794 0.0 0.0 0.0
-0.21280335 0.18630171 1.0390257 0.0 0.0 0.0
-0.21321534 0.18470904 1.0401131 0.0 0.0 0.0
-0.21364717 0.1831165 1.0411983 0.0 0.0 0.0
-0.21383992 0.18152255 1.0423118 0.0 0.0 0.0
-0.21378247 0.17992733 1.0434546 0.0 0.0 0.0
-0.21340871 0.17740797 1.0452925 0.0 0.0 0.0
-0.21342151 0.17891881 1.0454714 0.0 0.0 0.0
-0.21356338 0.17833129 1.0446169 0.0 0.0 0.0
-0.19526796 0.15996017 1.057387 0.0 0.0 0.0
-0.19383971 0.16369152 1.062117 0.0 0.0 0.0
-0.19543138 0.16128762 1.0588307 0.0 0.0 0.0
-0.21085721 0.19381909 1.0411179 0.0 0.0 0.0
-0.21147673 0.19286633 1.0417259 0.0 0.0 0.0
-0.21185665 0.19127354 1.042817 0.0 0.0 0.0
-0.21262333 0.1896828 1.0438627 0.0 0.0 0.0
-0.21297367 0.18808979 1.0449575 0.0 0.0 0.0
-0.21361344 0.18171352 1.049427 0.0 0.0 0.0
-0.21326333 0.18011659 1.0506046 0.0 0.0 0.0
-0.1955736 0.16285378 1.0601072 0.0 0.0 0.0
-0.21315743 0.18658775 1.0435982 0.0 0.0 0.0
-0.21355194 0.18537061 1.0444201 0.0 0.0 0.0
-0.21387976 0.1837775 1.0455177 0.0 0.0 0.0
-0.21362504 0.1813093 1.0473052 0.0 0.0 0.0
-0.21380998 0.18218222 1.0466621 0.0 0.0 0.0
-0.21289463 0.18638253 1.041366 0.0 0.0 0.0
-0.21305573 0.18653689 1.0427358 0.0 0.0 0.0
-0.21310394 0.18583579 1.0417316 0.0 0.0 0.0
-0.21364775 0.18424374 1.0428036 0.0 0.0 0.0
-0.21384944 0.18264997 1.043916 0.0 0.0 0.0
-0.21346749 0.17991562 1.0459076 0.0 0.0 0.0
-0.21389097 0.18105529 1.0450473 0.0 0.0 0.0
-0.20187482 0.16695283 1.0636922 0.0 0.0 0.0
-0.19403087 0.1647051 1.0637816 0.0 0.0 0.0
-0.19578663 0.16361991 1.0619454 0.0 0.0 0.0
-0.19720595 0.1599894 1.0571446 0.0 0.0 0.0
-0.19741176 0.16083746 1.0589253 0.0 0.0 0.0
-0.21338515 0.18718792 1.0455531 0.0 0.0 0.0
-0.21354046 0.18708445 1.0468622 0.0 0.0 0.0
-0.21366981 0.18649861 1.0460116 0.0 0.0 0.0
-0.21388987 0.18490495 1.0471216 0.0 0.0 0.0
-0.21375363 0.18302925 1.0484737 0.0 0.0 0.0
-0.21377629 0.18360473 1.0486919 0.0 0.0 0.0
-0.21377644 0.18330947 1.0482714 0.0 0.0 0.0
-0.19753923 0.16257051 1.0600845 0.0 0.0 0.0
-0.20375539 0.16763027 1.0629947 0.0 0.0 0.0
-0.20534283 0.16844043 1.0622363 0.0 0.0 0.0
-0.19588849 0.16564132 1.0629023 0.0 0.0 0.0
-0.19768797 0.16406249 1.061413 0.0 0.0 0.0
-0.19929302 0.16150543 1.0582345 0.0 0.0 0.0
-0.19909473 0.16057283 1.0565131 0.0 0.0 0.0
-0.19946007 0.1627924 1.0597069 0.0 0.0 0.0
-0.20561226 0.16857487 1.0621097 0.0 0.0 0.0
-0.1996243 0.16410965 1.0611582 0.0 0.0 0.0
-0.19786714 0.16521129 1.0629826 0.0 0.0 0.0
-0.20121388 0.16172847 1.0578562 0.0 0.0 0.0
-0.20246108 0.16232 1.0572922 0.0 0.0 0.0
-0.20105706 0.16032754 1.0564636 0.0 0.0 0.0
-0.20138597 0.16295698 1.0593697 0.0 0.0 0.0
-0.20238958 0.16344696 1.0589057 0.0 0.0 0.0
-0.20746124 0.16960795 1.0611626 0.0 0.0 0.0
-0.20798951 0.17005014 1.0607871 0.0 0.0 0.0
-0.19981225 0.16515911 1.0627975 0.0 0.0 0.0
-0.20154975 0.16428 1.0608166 0.0 0.0 0.0
-0.20327008 0.16457918 1.0604072 0.0 0.0 0.0
-0.20293303 0.16105612 1.0557301 0.0 0.0 0.0
-0.20299287 0.16164529 1.0562645 0.0 0.0 0.0
-0.20309776 0.16119622 1.0556116 0.0 0.0 0.0
-0.20308143 0.16255292 1.0570552 0.0 0.0 0.0
-0.20325208 0.16379769 1.0585573 0.0 0.0 0.0
-0.20170715 0.16567482 1.0622135 0.0 0.0 0.0
-0.20172983 0.16585241 1.0624142 0.0 0.0 0.0
-0.20180015 0.16569853 1.0621862 0.0 0.0 0.0
-0.20346014 0.16462028 1.060356 0.0 0.0 0.0
-0.21024054 0.17325254 1.0582486 0.0 0.0 0.0
-0.20922519 0.17160131 1.0595409 0.0 0.0 0.0
-0.20928662 0.17206264 1.0600818 0.0 0.0 0.0
-0.20927572 0.17165229 1.0594987 0.0 0.0 0.0
-0.20491911 0.16371344 1.0560185 0.0 0.0 0.0
-0.20513216 0.16392982 1.0558401 0.0 0.0 0.0
-0.20476927 0.16223419 1.0546812 0.0 0.0 0.0
-0.20540522 0.16280398 1.0542024 0.0 0.0 0.0
-0.20508955 0.16496211 1.057518 0.0 0.0 0.0
-0.20520827 0.16505766 1.0574365 0.0 0.0 0.0
-0.20361905 0.16599835 1.0617645 0.0 0.0 0.0
-0.20511699 0.16731185 1.0606579 0.0 0.0 0.0
-0.20701668 0.16778992 1.0576917 0.0 0.0 0.0
-0.20526855 0.16611269 1.0590863 0.0 0.0 0.0
-0.20531508 0.16651595 1.0594995 0.0 0.0 0.0
-0.20535201 0.16618575 1.0590247 0.0 0.0 0.0
-0.20656908 0.16382179 1.0533444 0.0 0.0 0.0
-0.20726401 0.16440921 1.0528463 0.0 0.0 0.0
-0.20673418 0.16513005 1.0548021 0.0 0.0 0.0
-0.20721352 0.16553634 1.0544579 0.0 0.0 0.0
-0.21213537 0.17645298 1.0557522 0.0 0.0 0.0
-0.21094343 0.17411143 1.0575563 0.0 0.0 0.0
-0.21157289 0.17485484 1.0569546 0.0 0.0 0.0
-0.20689838 0.16644815 1.0562525 0.0 0.0 0.0
-0.2070384 0.16765292 1.0574936 0.0 0.0 0.0
-0.2071677 0.16666339 1.0560684 0.0 0.0 0.0
-0.20542753 0.16748916 1.0604959 0.0 0.0 0.0
-0.20835723 0.16554242 1.0519142 0.0 0.0 0.0
-0.20887518 0.16601309 1.0515196 0.0 0.0 0.0
-0.21022062 0.16874294 1.0518296 0.0 0.0 0.0
-0.20853022 0.16676065 1.0534351 0.0 0.0 0.0
-0.20893778 0.16714087 1.0531176 0.0 0.0 0.0
-0.20705788 0.16781949 1.0576659 0.0 0.0 0.0
-0.20710728 0.16808254 1.0580966 0.0 0.0 0.0
-0.21301071 0.17964767 1.053376 0.0 0.0 0.0
-0.21255966 0.17777275 1.0547632 0.0 0.0 0.0
-0.21268442 0.17898144 1.0558759 0.0 0.0 0.0
-0.21266878 0.17805083 1.0545527 0.0 0.0 0.0
-0.21040303 0.16987129 1.0534135 0.0 0.0 0.0
-0.2087079 0.16792613 1.0549929 0.0 0.0 0.0
-0.20904657 0.16826876 1.05471 0.0 0.0 0.0
-0.20724916 0.16883087 1.0593319 0.0 0.0 0.0
-0.20735407 0.16891921 1.059257 0.0 0.0 0.0
-0.21141042 0.16921715 1.0489476 0.0 0.0 0.0
-0.2101292 0.16744569 1.0503558 0.0 0.0 0.0
-0.21023367 0.16835955 1.0512823 0.0 0.0 0.0
-0.21025306 0.16761573 1.0502205 0.0 0.0 0.0
-0.2105554 0.1709995 1.0550007 0.0 0.0 0.0
-0.20888242 0.16912846 1.0565249 0.0 0.0 0.0
-0.20917262 0.16939692 1.0563005 0.0 0.0 0.0
-0.2102882 0.16882215 1.0517654 0.0 0.0 0.0
-0.21155336 0.17034525 1.0505358 0.0 0.0 0.0
-0.21046855 0.16995758 1.0533445 0.0 0.0 0.0
-0.21144244 0.17147206 1.0521541 0.0 0.0 0.0
-0.21030852 0.1721255 1.0566353 0.0 0.0 0.0
-0.20905642 0.17033634 1.0580531 0.0 0.0 0.0
-0.20924225 0.17052464 1.0578974 0.0 0.0 0.0
-0.21332045 0.17401256 1.0453131 0.0 0.0 0.0
-0.21313176 0.17241654 1.0464714 0.0 0.0 0.0
-0.21182726 0.17018284 1.0482119 0.0 0.0 0.0
-0.21214463 0.17081614 1.0477244 0.0 0.0 0.0
-0.21215652 0.17419828 1.052539 0.0 0.0 0.0
-0.21064606 0.17112519 1.054901 0.0 0.0 0.0
-0.21150951 0.17259969 1.0537516 0.0 0.0 0.0
-0.21319796 0.17513926 1.0469328 0.0 0.0 0.0
-0.21296702 0.17354301 1.0480963 0.0 0.0 0.0
-0.21199785 0.17142837 1.0497135 0.0 0.0 0.0
-0.21221398 0.17194387 1.0493215 0.0 0.0 0.0
-0.21289977 0.17626499 1.0485734 0.0 0.0 0.0
-0.21269788 0.17466895 1.0497334 0.0 0.0 0.0
-0.21215214 0.17285812 1.0510857 0.0 0.0 0.0
-0.21221501 0.17358015 1.0516515 0.0 0.0 0.0
-0.2122733 0.17307158 1.0509199 0.0 0.0 0.0
-0.21212728 0.17532557 1.0541477 0.0 0.0 0.0
-0.210786 0.17271693 1.0561591 0.0 0.0 0.0
-0.21166725 0.17372794 1.0553383 0.0 0.0 0.0
-0.21318512 0.17739396 1.0501449 0.0 0.0 0.0
-0.21227615 0.1746309 1.052217 0.0 0.0 0.0
-0.21264765 0.17579603 1.0513446 0.0 0.0 0.0
-0.21313237 0.17852104 1.0517561 0.0 0.0 0.0
-0.21240054 0.17639685 1.0533531 0.0 0.0 0.0
-0.21258587 0.17692301 1.0529571 0.0 0.0 0.0
-0.1651368 0.20369025 1.0561689 0.0 0.0 0.0
-0.16483887 0.20209371 1.0573405 0.0 0.0 0.0
-0.16481091 0.20049858 1.05848 0.0 0.0 0.0
-0.16460091 0.19890244 1.0596409 0.0 0.0 0.0
-0.16469382 0.19730808 1.0607662 0.0 0.0 0.0
-0.16431814 0.19680355 1.0635027 0.0 0.0 0.0
-0.16486959 0.1957141 1.0618819 0.0 0.0 0.0
-0.1652333 0.19412117 1.0629752 0.0 0.0 0.0
-0.16552038 0.1925278 1.0640773 0.0 0.0 0.0
-0.16609585 0.19093601 1.0651456 0.0 0.0 0.0
-0.16638882 0.20688711 1.0537483 0.0 0.0 0.0
-0.16530266 0.20452231 1.0555571 0.0 0.0 0.0
-0.16529496 0.205659 1.055545 0.0 0.0 0.0
-0.16556768 0.20528767 1.0549816 0.0 0.0 0.0
-0.16661108 0.18975236 1.0659299 0.0 0.0 0.0
-0.16667792 0.1895352 1.0664847 0.0 0.0 0.0
-0.16677673 0.18934487 1.0662013 0.0 0.0 0.0
-0.16748506 0.18775386 1.0672537 0.0 0.0 0.0
-0.16686283 0.21077661 1.0524123 0.0 0.0 0.0
-0.16766044 0.21008408 1.0513256 0.0 0.0 0.0
-0.16691084 0.2082748 1.0527002 0.0 0.0 0.0
-0.16690469 0.20856291 1.0526623 0.0 0.0 0.0
-0.16701585 0.20848551 1.052538 0.0 0.0 0.0
-0.16859625 0.21115437 1.0504562 0.0 0.0 0.0
-0.16859838 0.21199012 1.0505137 0.0 0.0 0.0
-0.16889536 0.21168593 1.0500431 0.0 0.0 0.0
-0.17035551 0.21319966 1.048798 0.0 0.0 0.0
-0.17037727 0.21347395 1.0489949 0.0 0.0 0.0
-0.17050533 0.21328977 1.0487168 0.0 0.0 0.0
-0.17220807 0.2141936 1.0478781 0.0 0.0 0.0
-0.17313257 0.21489935 1.0472698 0.0 0.0 0.0
-0.16500199 0.20143481 1.0529741 0.0 0.0 0.0
-0.16493921 0.19983947 1.0541178 0.0 0.0 0.0
-0.16452166 0.19824217 1.0553036 0.0 0.0 0.0
-0.16443235 0.19664684 1.0564505 0.0 0.0 0.0
-0.16454615 0.19505244 1.0575732 0.0 0.0 0.0
-0.16466272 0.19345812 1.0586956 0.0 0.0 0.0
-0.16491474 0.19186465 1.0598021 0.0 0.0 0.0
-0.16527961 0.19027174 1.0608951 0.0 0.0 0.0
-0.16584384 0.18867993 1.0619648 0.0 0.0 0.0
-0.17405164 0.21528849 1.0468875 0.0 0.0 0.0
-0.16500819 0.20096722 1.0557151 0.0 0.0 0.0
-0.16472961 0.19937079 1.0568844 0.0 0.0 0.0
-0.16473812 0.19777587 1.0580196 0.0 0.0 0.0
-0.16470852 0.1961807 1.0591592 0.0 0.0 0.0
-0.16484946 0.19458655 1.0602788 0.0 0.0 0.0
-0.16519503 0.19299361 1.0613742 0.0 0.0 0.0
-0.16561382 0.19140096 1.0624609 0.0 0.0 0.0
-0.16601917 0.18980819 1.0635493 0.0 0.0 0.0
-0.16659604 0.20463352 1.0505134 0.0 0.0 0.0
-0.16501239 0.20145631 1.0529577 0.0 0.0 0.0
-0.16592763 0.20303479 1.0517286 0.0 0.0 0.0
-0.16511521 0.2020641 1.0538561 0.0 0.0 0.0
-0.16621743 0.18785329 1.0625108 0.0 0.0 0.0
-0.16660652 0.18708913 1.0630109 0.0 0.0 0.0
-0.16737132 0.18549857 1.0640566 0.0 0.0 0.0
-0.17593661 0.21591535 1.0462254 0.0 0.0 0.0
-0.17733096 0.2165176 1.0456372 0.0 0.0 0.0
-0.16661157 0.20576094 1.0521166 0.0 0.0 0.0
-0.16581137 0.20416154 1.0533476 0.0 0.0 0.0
-0.1651997 0.20251442 1.0545909 0.0 0.0 0.0
-0.16520359 0.20261477 1.054629 0.0 0.0 0.0
-0.16520795 0.20256329 1.0545552 0.0 0.0 0.0
-0.16639362 0.18903561 1.0640569 0.0 0.0 0.0
-0.1668271 0.18821774 1.0645901 0.0 0.0 0.0
-0.16774079 0.18662797 1.0656182 0.0 0.0 0.0
-0.16475467 0.19871111 1.0525345 0.0 0.0 0.0
-0.16440819 0.19711418 1.0537117 0.0 0.0 0.0
-0.16427833 0.19551852 1.0548633 0.0 0.0 0.0
-0.16409545 0.19392253 1.0560211 0.0 0.0 0.0
-0.16442969 0.19232953 1.0571178 0.0 0.0 0.0
-0.16468407 0.19073598 1.058224 0.0 0.0 0.0
-0.1651344 0.18914357 1.0593071 0.0 0.0 0.0
-0.16567284 0.18755163 1.0603797 0.0 0.0 0.0
-0.16665697 0.20479777 1.0503894 0.0 0.0 0.0
-0.16741768 0.20623298 1.0492799 0.0 0.0 0.0
-0.17780885 0.21668708 1.0454619 0.0 0.0 0.0
-0.16682102 0.20611721 1.0518392 0.0 0.0 0.0
-0.16761711 0.20736152 1.0508615 0.0 0.0 0.0
-0.16868708 0.18505228 1.0666325 0.0 0.0 0.0
-0.16638485 0.20350498 1.0489329 0.0 0.0 0.0
-0.16578279 0.20190668 1.0501403 0.0 0.0 0.0
-0.16490801 0.19946265 1.0519814 0.0 0.0 0.0
-0.1650058 0.20138204 1.0528988 0.0 0.0 0.0
-0.16521181 0.20030856 1.0513443 0.0 0.0 0.0
-0.16604257 0.18665613 1.0609753 0.0 0.0 0.0
-0.16634604 0.18596031 1.0614363 0.0 0.0 0.0
-0.16718931 0.18437012 1.0624728 0.0 0.0 0.0
-0.16950454 0.2094346 1.0467604 0.0 0.0 0.0
-0.16836506 0.20742184 1.0483248 0.0 0.0 0.0
-0.16871955 0.20783515 1.04799 0.0 0.0 0.0
-0.1797014 0.21722895 1.0448596 0.0 0.0 0.0
-0.16915716 0.2105599 1.048407 0.0 0.0 0.0
-0.16851221 0.20893195 1.0496405 0.0 0.0 0.0
-0.16851351 0.20898594 1.0496542 0.0 0.0 0.0
-0.16852801 0.20896162 1.0496176 0.0 0.0 0.0
-0.17007153 0.21006384 1.0462475 0.0 0.0 0.0
-0.17116934 0.21103866 1.0454277 0.0 0.0 0.0
-0.1664784 0.20364228 1.0488244 0.0 0.0 0.0
-0.16777168 0.20510763 1.0476328 0.0 0.0 0.0
-0.18160611 0.21763301 1.0443541 0.0 0.0 0.0
-0.17023148 0.21142918 1.0476654 0.0 0.0 0.0
-0.17107451 0.21216565 1.0470443 0.0 0.0 0.0
-0.17188834 0.21146008 1.0450453 0.0 0.0 0.0
-0.16823207 0.20575151 1.0471215 0.0 0.0 0.0
-0.16891421 0.20670895 1.0463613 0.0 0.0 0.0
-0.18353222 0.2177965 1.0440176 0.0 0.0 0.0
-0.17205715 0.21272616 1.0465325 0.0 0.0 0.0
-0.17375512 0.21229316 1.0442383 0.0 0.0 0.0
-0.17424838 0.21265082 1.0439273 0.0 0.0 0.0
-0.17113097 0.20991103 1.0438269 0.0 0.0 0.0
-0.16996267 0.20812048 1.0452361 0.0 0.0 0.0
-0.16998407 0.2085471 1.0454364 0.0 0.0 0.0
-0.17012616 0.20831066 1.0450819 0.0 0.0 0.0
-0.18549837 0.21750714 1.0439988 0.0 0.0 0.0
-0.17391206 0.21369307 1.0456318 0.0 0.0 0.0
-0.17392981 0.21393289 1.0457931 0.0 0.0 0.0
-0.17406921 0.21377723 1.0455537 0.0 0.0 0.0
-0.17560023 0.21337028 1.0432602 0.0 0.0 0.0
-0.17171849 0.21020623 1.0435495 0.0 0.0 0.0
-0.18751553 0.21664235 1.0443845 0.0 0.0 0.0
-0.18763307 0.21657486 1.0444192 0.0 0.0 0.0
-0.17747448 0.21411975 1.0425122 0.0 0.0 0.0
-0.17796996 0.21426652 1.0423509 0.0 0.0 0.0
-0.17577495 0.21456882 1.0447949 0.0 0.0 0.0
-0.18951991 0.21592106 1.0446694 0.0 0.0 0.0
-0.17357458 0.21115895 1.0426586 0.0 0.0 0.0
-0.17434435 0.21152401 1.0423107 0.0 0.0 0.0
-0.1776499 0.2153099 1.0440526 0.0 0.0 0.0
-0.17768605 0.21566266 1.0443751 0.0 0.0 0.0
-0.17779715 0.2153929 1.0439767 0.0 0.0 0.0
-0.17936829 0.21464677 1.0419204 0.0 0.0 0.0
-0.19150871 0.21537629 1.0448303 0.0 0.0 0.0
-0.19252104 0.21500711 1.0449775 0.0 0.0 0.0
-0.17543808 0.21202888 1.0418261 0.0 0.0 0.0
-0.18126899 0.21509555 1.0413835 0.0 0.0 0.0
-0.19351169 0.21467233 1.0451028 0.0 0.0 0.0
-0.17953303 0.21595784 1.0433758 0.0 0.0 0.0
-0.17731264 0.21277419 1.041081 0.0 0.0 0.0
-0.17814139 0.21314 1.0407255 0.0 0.0 0.0
-0.18320979 0.21509402 1.0411628 0.0 0.0 0.0
-0.18145181 0.21620366 1.0429815 0.0 0.0 0.0
-0.19550624 0.21406192 1.0453099 0.0 0.0 0.0
-0.19681709 0.21343602 1.045606 0.0 0.0 0.0
-0.17918451 0.21354982 1.0403147 0.0 0.0 0.0
-0.16457415 0.1964554 1.0493453 0.0 0.0 0.0
-0.16433439 0.19485906 1.0505099 0.0 0.0 0.0
-0.16423121 0.19326344 1.0516584 0.0 0.0 0.0
-0.16422805 0.19166858 1.0527948 0.0 0.0 0.0
-0.16438724 0.19007452 1.0539123 0.0 0.0 0.0
-0.16469075 0.18848132 1.0550126 0.0 0.0 0.0
-0.16493686 0.1868877 1.0561199 0.0 0.0 0.0
-0.16539003 0.18529534 1.0572026 0.0 0.0 0.0
-0.16454151 0.19598758 1.0520906 0.0 0.0 0.0
-0.16419165 0.19439077 1.0532683 0.0 0.0 0.0
-0.16416217 0.19279568 1.0544081 0.0 0.0 0.0
-0.16431558 0.19120148 1.0555261 0.0 0.0 0.0
-0.16454001 0.18960774 1.0566359 0.0 0.0 0.0
-0.16511741 0.18801606 1.057704 0.0 0.0 0.0
-0.16548882 0.18642315 1.058796 0.0 0.0 0.0
-0.18516876 0.21488477 1.041088 0.0 0.0 0.0
-0.18337992 0.21634442 1.042661 0.0 0.0 0.0
-0.19753368 0.21308099 1.045777 0.0 0.0 0.0
-0.18109894 0.21384403 1.0398861 0.0 0.0 0.0
-0.16536243 0.19964968 1.0469797 0.0 0.0 0.0
-0.16460395 0.19655286 1.0492724 0.0 0.0 0.0
-0.16509514 0.19805321 1.0481474 0.0 0.0 0.0
-0.16469346 0.19696002 1.0500486 0.0 0.0 0.0
-0.16565874 0.18464521 1.0576351 0.0 0.0 0.0
-0.1661192 0.18370444 1.0582526 0.0 0.0 0.0
-0.16710639 0.182115 1.0592722 0.0 0.0 0.0
-0.16558778 0.20077813 1.0485582 0.0 0.0 0.0
-0.16492781 0.19917963 1.0497724 0.0 0.0 0.0
-0.16481048 0.19739313 1.0510588 0.0 0.0 0.0
-0.16482359 0.19777116 1.0511872 0.0 0.0 0.0
-0.1648443 0.19758417 1.0509186 0.0 0.0 0.0
-0.16584715 0.18569022 1.0592773 0.0 0.0 0.0
-0.1663079 0.18483283 1.0598356 0.0 0.0 0.0
-0.16706224 0.1832421 1.0608828 0.0 0.0 0.0
-0.1871431 0.21450381 1.0411338 0.0 0.0 0.0
-0.187325 0.2153488 1.0427125 0.0 0.0 0.0
-0.18760207 0.21431991 1.0412126 0.0 0.0 0.0
-0.18533672 0.21616042 1.0425683 0.0 0.0 0.0
-0.1872863 0.21544556 1.0428547 0.0 0.0 0.0
-0.183009 0.21418796 1.0394228 0.0 0.0 0.0
-0.19954893 0.2122374 1.0461475 0.0 0.0 0.0
-0.20016667 0.21185964 1.0463462 0.0 0.0 0.0
-0.16753203 0.20285156 1.0444506 0.0 0.0 0.0
-0.166141 0.20110703 1.0458522 0.0 0.0 0.0
-0.16630895 0.20124985 1.0457314 0.0 0.0 0.0
-0.16796002 0.1805741 1.0602723 0.0 0.0 0.0
-0.18734197 0.21542975 1.0428598 0.0 0.0 0.0
-0.18738343 0.21571323 1.043224 0.0 0.0 0.0
-0.18496023 0.214068 1.0392852 0.0 0.0 0.0
-0.18914564 0.2138031 1.0414042 0.0 0.0 0.0
-0.20159741 0.21102026 1.0467808 0.0 0.0 0.0
-0.20274238 0.21027894 1.047178 0.0 0.0 0.0
-0.16737843 0.20397809 1.046074 0.0 0.0 0.0
-0.16631673 0.20229504 1.0473944 0.0 0.0 0.0
-0.16636561 0.20272689 1.0478275 0.0 0.0 0.0
-0.1663785 0.2023775 1.0473286 0.0 0.0 0.0
-0.16789377 0.20322692 1.0441419 0.0 0.0 0.0
-0.16912363 0.20445529 1.043126 0.0 0.0 0.0
-0.18694434 0.21357594 1.0394092 0.0 0.0 0.0
-0.18772903 0.21319333 1.039592 0.0 0.0 0.0
-0.18933673 0.21481793 1.0430678 0.0 0.0 0.0
-0.19113128 0.21329427 1.0415398 0.0 0.0 0.0
-0.19299063 0.21275492 1.0417116 0.0 0.0 0.0
-0.20365299 0.20971997 1.0474722 0.0 0.0 0.0
-0.20499519 0.20869657 1.048048 0.0 0.0 0.0
-0.16953023 0.20717993 1.0435468 0.0 0.0 0.0
-0.16802481 0.20491959 1.0453297 0.0 0.0 0.0
-0.16875954 0.20558067 1.0447745 0.0 0.0 0.0
-0.18895821 0.21274808 1.0397689 0.0 0.0 0.0
-0.16959865 0.20588717 1.0420519 0.0 0.0 0.0
-0.16961503 0.2062462 1.0422072 0.0 0.0 0.0
-0.16965732 0.20605342 1.0419266 0.0 0.0 0.0
-0.19131541 0.21438734 1.0431485 0.0 0.0 0.0
-0.19294402 0.21388212 1.0433221 0.0 0.0 0.0
-0.19312252 0.21272209 1.0417198 0.0 0.0 0.0
-0.20575759 0.20786832 1.0485507 0.0 0.0 0.0
-0.20672876 0.20711127 1.0489793 0.0 0.0 0.0
-0.16974622 0.20739308 1.0433706 0.0 0.0 0.0
-0.16987573 0.20787193 1.0444885 0.0 0.0 0.0
-0.19094169 0.21226211 1.0398883 0.0 0.0 0.0
-0.19331056 0.21377131 1.0433595 0.0 0.0 0.0
-0.19510026 0.21230227 1.0417929 0.0 0.0 0.0
-0.17141819 0.20725295 1.040871 0.0 0.0 0.0
-0.17188671 0.20766065 1.0405271 0.0 0.0 0.0
-0.207845 0.20621093 1.0494931 0.0 0.0 0.0
-0.20846523 0.20552599 1.0499102 0.0 0.0 0.0
-0.20954837 0.20393711 1.0509183 0.0 0.0 0.0
-0.19293454 0.21167305 1.0400803 0.0 0.0 0.0
-0.19303204 0.21220982 1.0409302 0.0 0.0 0.0
-0.19309022 0.21162815 1.0400946 0.0 0.0 0.0
-0.17156647 0.20875052 1.0421954 0.0 0.0 0.0
-0.17157592 0.20886435 1.0422802 0.0 0.0 0.0
-0.1716049 0.20878641 1.0421655 0.0 0.0 0.0
-0.19530669 0.21314393 1.043578 0.0 0.0 0.0
-0.1971229 0.21231036 1.0439644 0.0 0.0 0.0
-0.19712128 0.21139264 1.04221 0.0 0.0 0.0
-0.19726825 0.21198291 1.0434799 0.0 0.0 0.0
-0.19752802 0.21118531 1.0423113 0.0 0.0 0.0
-0.17323579 0.20864084 1.0396745 0.0 0.0 0.0
-0.17403315 0.20926747 1.0391368 0.0 0.0 0.0
-0.21010217 0.202637 1.0517811 0.0 0.0 0.0
-0.21019569 0.20276727 1.0525782 0.0 0.0 0.0
-0.21022172 0.20234582 1.0519749 0.0 0.0 0.0
-0.21106425 0.20075558 1.0530115 0.0 0.0 0.0
-0.21162643 0.19916378 1.0540813 0.0 0.0 0.0
-0.21214344 0.19757164 1.0551565 0.0 0.0 0.0
-0.21310866 0.18800752 1.0618598 0.0 0.0 0.0
-0.19491991 0.21116613 1.0402144 0.0 0.0 0.0
-0.17338116 0.21017174 1.0409757 0.0 0.0 0.0
-0.17371777 0.21039318 1.0407796 0.0 0.0 0.0
-0.19733009 0.21220841 1.0440135 0.0 0.0 0.0
-0.19915119 0.2103841 1.0426966 0.0 0.0 0.0
-0.20055979 0.20960703 1.043089 0.0 0.0 0.0
-0.17506327 0.20991725 1.0385562 0.0 0.0 0.0
-0.21258087 0.19656137 1.0558263 0.0 0.0 0.0
-0.21275726 0.19675757 1.0573272 0.0 0.0 0.0
-0.21284546 0.19598058 1.0562098 0.0 0.0 0.0
-0.21315232 0.19438744 1.0573097 0.0 0.0 0.0
-0.21336438 0.19279359 1.0584209 0.0 0.0 0.0
-0.21343543 0.19119912 1.0595487 0.0 0.0 0.0
-0.21328324 0.18863273 1.0613945 0.0 0.0 0.0
-0.21334769 0.19054018 1.0620289 0.0 0.0 0.0
-0.21351616 0.1896046 1.0606756 0.0 0.0 0.0
-0.19691584 0.21054173 1.0404313 0.0 0.0 0.0
-0.19785047 0.21005961 1.040668 0.0 0.0 0.0
-0.17524198 0.21107133 1.0401223 0.0 0.0 0.0
-0.19935492 0.21125665 1.0444602 0.0 0.0 0.0
-0.20035397 0.21073334 1.0447186 0.0 0.0 0.0
-0.20119463 0.20922378 1.0432895 0.0 0.0 0.0
-0.20316324 0.20802656 1.0439175 0.0 0.0 0.0
-0.17692079 0.21085526 1.0376757 0.0 0.0 0.0
-0.17703767 0.21087919 1.0376455 0.0 0.0 0.0
-0.19894683 0.20952068 1.0409266 0.0 0.0 0.0
-0.20096888 0.20848201 1.0414357 0.0 0.0 0.0
-0.17711927 0.21178645 1.0393982 0.0 0.0 0.0
-0.17795311 0.21201152 1.0391427 0.0 0.0 0.0
-0.2013849 0.21024691 1.0449475 0.0 0.0 0.0
-0.20316674 0.20915402 1.0455225 0.0 0.0 0.0
-0.20324676 0.20796297 1.0439532 0.0 0.0 0.0
-0.20515215 0.20644276 1.0448188 0.0 0.0 0.0
-0.1788328 0.21117604 1.0372287 0.0 0.0 0.0
-0.20097998 0.20847479 1.0414393 0.0 0.0 0.0
-0.17901219 0.21232335 1.0387995 0.0 0.0 0.0
-0.20344085 0.20894459 1.0456403 0.0 0.0 0.0
-0.20513818 0.20757006 1.0464256 0.0 0.0 0.0
-0.20533924 0.20624875 1.0449355 0.0 0.0 0.0
-0.20688505 0.20485747 1.04575 0.0 0.0 0.0
-0.18072201 0.21175562 1.0366 0.0 0.0 0.0
-0.20303448 0.20718916 1.0421203 0.0 0.0 0.0
-0.20321275 0.20785004 1.0436598 0.0 0.0 0.0
-0.20343266 0.20690088 1.0422803 0.0 0.0 0.0
-0.20509487 0.20531511 1.0432202 0.0 0.0 0.0
-0.18090799 0.21282661 1.0382242 0.0 0.0 0.0
-0.20554036 0.20714997 1.0466789 0.0 0.0 0.0
-0.20674655 0.205984 1.0473716 0.0 0.0 0.0
-0.20746221 0.204189 1.0461603 0.0 0.0 0.0
-0.20827058 0.20327003 1.0467225 0.0 0.0 0.0
-0.20941436 0.20168151 1.0477235 0.0 0.0 0.0
-0.18262747 0.21215196 1.0361 0.0 0.0 0.0
-0.20514624 0.20525545 1.0432569 0.0 0.0 0.0
-0.20676778 0.20372944 1.0441587 0.0 0.0 0.0
-0.18282385 0.21310677 1.0378057 0.0 0.0 0.0
-0.2076467 0.20527783 1.0477722 0.0 0.0 0.0
-0.20849942 0.20439886 1.0483007 0.0 0.0 0.0
-0.20951693 0.20280953 1.0493168 0.0 0.0 0.0
-0.20966285 0.2012531 1.0480003 0.0 0.0 0.0
-0.21023951 0.20009133 1.0487623 0.0 0.0 0.0
-0.21091163 0.19850001 1.049819 0.0 0.0 0.0
-0.21167311 0.19690929 1.0508654 0.0 0.0 0.0
-0.18456839 0.21214816 1.0358808 0.0 0.0 0.0
-0.20727552 0.20312519 1.0445311 0.0 0.0 0.0
-0.20815043 0.2021421 1.0451317 0.0 0.0 0.0
-0.20935652 0.20055382 1.0461251 0.0 0.0 0.0
-0.18474971 0.21327275 1.0374674 0.0 0.0 0.0
-0.20987466 0.20203419 1.0498283 0.0 0.0 0.0
-0.21021128 0.20121844 1.0503708 0.0 0.0 0.0
-0.21105108 0.19962816 1.0514078 0.0 0.0 0.0
-0.21176563 0.19803719 1.0524597 0.0 0.0 0.0
-0.21225011 0.19644491 1.0535386 0.0 0.0 0.0
-0.21205959 0.19610329 1.0513952 0.0 0.0 0.0
-0.21227819 0.19624533 1.053251 0.0 0.0 0.0
-0.21243036 0.19531862 1.051912 0.0 0.0 0.0
-0.21289429 0.19372627 1.0529932 0.0 0.0 0.0
-0.21324068 0.19213308 1.0540887 0.0 0.0 0.0
-0.21352534 0.19053976 1.0551913 0.0 0.0 0.0
-0.21359746 0.18894534 1.056319 0.0 0.0 0.0
-0.21354024 0.18734999 1.0574621 0.0 0.0 0.0
-0.21311472 0.18419154 1.0597607 0.0 0.0 0.0
-0.21323848 0.18575336 1.0586338 0.0 0.0 0.0
-0.18656723 0.21148974 1.0361215 0.0 0.0 0.0
-0.20945735 0.20040148 1.046222 0.0 0.0 0.0
-0.21027577 0.19896409 1.0471525 0.0 0.0 0.0
-0.21100746 0.19737323 1.0482024 0.0 0.0 0.0
-0.18673842 0.21272893 1.0376277 0.0 0.0 0.0
-0.18787716 0.21206675 1.0379691 0.0 0.0 0.0
-0.21233393 0.19617866 1.0537188 0.0 0.0 0.0
-0.21276152 0.19485274 1.0546142 0.0 0.0 0.0
-0.21321827 0.19326045 1.0556966 0.0 0.0 0.0
-0.21338907 0.19166642 1.0568126 0.0 0.0 0.0
-0.21343313 0.1900717 1.0579437 0.0 0.0 0.0
-0.21336152 0.18847632 1.0590885 0.0 0.0 0.0
-0.21320587 0.18633601 1.0606309 0.0 0.0 0.0
-0.21325429 0.18748312 1.0610949 0.0 0.0 0.0
-0.21340737 0.18688174 1.0602194 0.0 0.0 0.0
-0.18855132 0.21099836 1.0362449 0.0 0.0 0.0
-0.18857282 0.21104729 1.0364298 0.0 0.0 0.0
-0.18865825 0.2109438 1.0362717 0.0 0.0 0.0
-0.21180519 0.1958039 1.0492295 0.0 0.0 0.0
-0.21181166 0.19581152 1.0492848 0.0 0.0 0.0
-0.21181521 0.19578269 1.0492431 0.0 0.0 0.0
-0.21257915 0.19419207 1.0502892 0.0 0.0 0.0
-0.21298781 0.19259939 1.0513769 0.0 0.0 0.0
-0.21321431 0.1910056 1.0524864 0.0 0.0 0.0
-0.21342865 0.18941189 1.0535975 0.0 0.0 0.0
-0.2135762 0.18781777 1.0547162 0.0 0.0 0.0
-0.21357125 0.18622282 1.055853 0.0 0.0 0.0
-0.2132339 0.18462597 1.0570291 0.0 0.0 0.0
-0.18876831 0.21172044 1.0381142 0.0 0.0 0.0
-0.19055717 0.21026096 1.036541 0.0 0.0 0.0
-0.19074494 0.2113127 1.0381787 0.0 0.0 0.0
-0.19253173 0.20987731 1.0365888 0.0 0.0 0.0
-0.19360293 0.20937619 1.0368233 0.0 0.0 0.0
-0.19274586 0.21063094 1.0384358 0.0 0.0 0.0
-0.19319049 0.21050133 1.0384774 0.0 0.0 0.0
-0.19455312 0.20896421 1.0370082 0.0 0.0 0.0
-0.19472787 0.21016258 1.0385429 0.0 0.0 0.0
-0.19654848 0.20834588 1.0372207 0.0 0.0 0.0
-0.19795085 0.20780545 1.0374453 0.0 0.0 0.0
-0.19672289 0.20954749 1.0387534 0.0 0.0 0.0
-0.19820009 0.2089342 1.0390211 0.0 0.0 0.0
-0.19856401 0.20749895 1.037594 0.0 0.0 0.0
-0.19874364 0.20864229 1.0391674 0.0 0.0 0.0
-0.20069447 0.20735306 1.0398628 0.0 0.0 0.0
-0.20061171 0.20628829 1.0382222 0.0 0.0 0.0
-0.20069754 0.20672509 1.0389678 0.0 0.0 0.0
-0.20070444 0.20622575 1.0382563 0.0 0.0 0.0
-0.20080529 0.20727533 1.0399054 0.0 0.0 0.0
-0.20265886 0.20508562 1.0388452 0.0 0.0 0.0
-0.20328046 0.20464514 1.0390879 0.0 0.0 0.0
-0.20284545 0.20615146 1.040473 0.0 0.0 0.0
-0.20343655 0.20577341 1.0406748 0.0 0.0 0.0
-0.20475057 0.20337911 1.0398217 0.0 0.0 0.0
-0.20516869 0.20306078 1.0400009 0.0 0.0 0.0
-0.2068475 0.20147513 1.0409389 0.0 0.0 0.0
-0.20495303 0.20426519 1.0415758 0.0 0.0 0.0
-0.20506901 0.20486659 1.0425849 0.0 0.0 0.0
-0.20504528 0.20418738 1.0416209 0.0 0.0 0.0
-0.20674551 0.20260186 1.0425559 0.0 0.0 0.0
-0.16817386 0.18278061 1.0634928 0.0 0.0 0.0
-0.20686118 0.20145924 1.0409487 0.0 0.0 0.0
-0.20795859 0.19988635 1.0419437 0.0 0.0 0.0
-0.16833833 0.18390885 1.0650786 0.0 0.0 0.0
-0.2070726 0.20224464 1.0427732 0.0 0.0 0.0
-0.20816307 0.20101477 1.0435246 0.0 0.0 0.0
-0.1683487 0.18252903 1.0636523 0.0 0.0 0.0
-0.16935121 0.18119226 1.0644898 0.0 0.0 0.0
-0.20905073 0.19864883 1.0427002 0.0 0.0 0.0
-0.20937274 0.19829923 1.0429124 0.0 0.0 0.0
-0.21022508 0.19670905 1.0439481 0.0 0.0 0.0
-0.21125121 0.19511978 1.044963 0.0 0.0 0.0
-0.16853119 0.18364044 1.0652479 0.0 0.0 0.0
-0.16868205 0.18499903 1.0665876 0.0 0.0 0.0
-0.16961849 0.18232119 1.0660636 0.0 0.0 0.0
-0.16866682 0.1861655 1.0682504 0.0 0.0 0.0
-0.16869472 0.18507835 1.0666988 0.0 0.0 0.0
-0.16869561 0.18503831 1.0666417 0.0 0.0 0.0
-0.16994047 0.18345034 1.0676305 0.0 0.0 0.0
-0.20926058 0.199451 1.0445133 0.0 0.0 0.0
-0.20928681 0.19957589 1.0447414 0.0 0.0 0.0
-0.20927659 0.19942614 1.0445293 0.0 0.0 0.0
-0.2102906 0.19783671 1.0455456 0.0 0.0 0.0
-0.21094388 0.19624546 1.0466046 0.0 0.0 0.0
-0.17053993 0.17969847 1.0654182 0.0 0.0 0.0
-0.17062528 0.17960437 1.0654753 0.0 0.0 0.0
-0.17189051 0.1780165 1.066462 0.0 0.0 0.0
-0.21131325 0.19501346 1.0450317 0.0 0.0 0.0
-0.21206056 0.19352943 1.0460036 0.0 0.0 0.0
-0.21267572 0.19193785 1.047067 0.0 0.0 0.0
-0.2130664 0.190345 1.0481572 0.0 0.0 0.0
-0.21331847 0.18875147 1.0492636 0.0 0.0 0.0
-0.21358359 0.187158 1.0503685 0.0 0.0 0.0
-0.21370783 0.18556383 1.0514903 0.0 0.0 0.0
-0.21348955 0.18396759 1.0526521 0.0 0.0 0.0
-0.21325219 0.18237133 1.0538164 0.0 0.0 0.0
-0.17070921 0.18095964 1.0669087 0.0 0.0 0.0
-0.17092481 0.18073332 1.0670453 0.0 0.0 0.0
-0.17236523 0.17914653 1.0680113 0.0 0.0 0.0
-0.16889749 0.18584874 1.0684496 0.0 0.0 0.0
-0.16985999 0.18457714 1.0692456 0.0 0.0 0.0
-0.17085725 0.18245998 1.0682313 0.0 0.0 0.0
-0.17143352 0.18186352 1.0685905 0.0 0.0 0.0
-0.17298596 0.18027727 1.069543 0.0 0.0 0.0
-0.21156198 0.1953776 1.0471524 0.0 0.0 0.0
-0.21208774 0.19465694 1.0476056 0.0 0.0 0.0
-0.21262108 0.1930649 1.048679 0.0 0.0 0.0
-0.21295993 0.19147182 1.0497754 0.0 0.0 0.0
-0.21334285 0.18987902 1.0508659 0.0 0.0 0.0
-0.21351711 0.18828498 1.0519818 0.0 0.0 0.0
-0.2136739 0.18669102 1.0530994 0.0 0.0 0.0
-0.21342912 0.18509455 1.0542647 0.0 0.0 0.0
-0.21326092 0.1834988 1.0554209 0.0 0.0 0.0
-0.17268892 0.17734614 1.0668485 0.0 0.0 0.0
-0.1737964 0.17643209 1.067373 0.0 0.0 0.0
-0.17285071 0.17869 1.0682808 0.0 0.0 0.0
-0.17418499 0.17756161 1.0689324 0.0 0.0 0.0
-0.17105699 0.18337598 1.0699646 0.0 0.0 0.0
-0.17118274 0.18355992 1.0710374 0.0 0.0 0.0
-0.17141095 0.18299077 1.0701984 0.0 0.0 0.0
-0.17291856 0.18140434 1.0711565 0.0 0.0 0.0
-0.17299166 0.18027152 1.0695466 0.0 0.0 0.0
-0.17441723 0.17869034 1.0705101 0.0 0.0 0.0
-0.17477733 0.17567615 1.0677993 0.0 0.0 0.0
-0.17611594 0.17484999 1.0682352 0.0 0.0 0.0
-0.17494415 0.17696489 1.0692708 0.0 0.0 0.0
-0.17641446 0.17597908 1.0698049 0.0 0.0 0.0
-0.17511819 0.17817126 1.0707999 0.0 0.0 0.0
-0.17665337 0.17710774 1.0713822 0.0 0.0 0.0
-0.17320156 0.18107314 1.07136 0.0 0.0 0.0
-0.1744877 0.17981806 1.0721072 0.0 0.0 0.0
-0.1768297 0.17441465 1.0684637 0.0 0.0 0.0
-0.17699991 0.17566434 1.0699624 0.0 0.0 0.0
-0.1771839 0.17675835 1.0715705 0.0 0.0 0.0
-0.17530385 0.17924748 1.0724204 0.0 0.0 0.0
-0.1766627 0.17823519 1.0729862 0.0 0.0 0.0
-0.17903082 0.17464399 1.0704572 0.0 0.0 0.0
-0.17966995 0.17440216 1.0705564 0.0 0.0 0.0
-0.1788649 0.17334524 1.068993 0.0 0.0 0.0
-0.17906304 0.17327151 1.0690228 0.0 0.0 0.0
-0.17922291 0.17564723 1.072129 0.0 0.0 0.0
-0.17952038 0.17552873 1.0721794 0.0 0.0 0.0
-0.17737681 0.17775215 1.073249 0.0 0.0 0.0
-0.18105632 0.17368579 1.0709083 0.0 0.0 0.0
-0.18255264 0.17282325 1.0713519 0.0 0.0 0.0
-0.18089694 0.17231297 1.0694962 0.0 0.0 0.0
-0.18181592 0.17169186 1.0698336 0.0 0.0 0.0
-0.18123206 0.17487273 1.0724512 0.0 0.0 0.0
-0.18281873 0.17395215 1.0729257 0.0 0.0 0.0
-0.17939307 0.17689742 1.0736272 0.0 0.0 0.0
-0.17957442 0.17765275 1.0751969 0.0 0.0 0.0
-0.17988786 0.17665812 1.0737412 0.0 0.0 0.0
-0.1830956 0.17256993 1.0714703 0.0 0.0 0.0
-0.18293373 0.17122638 1.0700374 0.0 0.0 0.0
-0.18327351 0.17373383 1.0730293 0.0 0.0 0.0
-0.18143249 0.17578113 1.0741895 0.0 0.0 0.0
-0.18327327 0.17508209 1.0744773 0.0 0.0 0.0
-0.18507104 0.17217672 1.0715246 0.0 0.0 0.0
-0.18490385 0.17089222 1.0700506 0.0 0.0 0.0
-0.18524823 0.17334759 1.0730789 0.0 0.0 0.0
-0.18343921 0.17503475 1.0744922 0.0 0.0 0.0
-0.1868777 0.1705164 1.0700928 0.0 0.0 0.0
-0.18704425 0.17180778 1.0715622 0.0 0.0 0.0
-0.18723159 0.1728643 1.0731963 0.0 0.0 0.0
-0.16795896 0.18165208 1.061913 0.0 0.0 0.0
-0.18542311 0.17454578 1.0746137 0.0 0.0 0.0
-0.18901223 0.17149831 1.0715576 0.0 0.0 0.0
-0.18883544 0.17032275 1.0700067 0.0 0.0 0.0
-0.18958203 0.17014009 1.0700517 0.0 0.0 0.0
-0.18917087 0.17287844 1.0729648 0.0 0.0 0.0
-0.1681724 0.18134734 1.0621057 0.0 0.0 0.0
-0.16924819 0.1800644 1.0628967 0.0 0.0 0.0
-0.18737404 0.17442767 1.0744749 0.0 0.0 0.0
-0.19095458 0.1714768 1.0713508 0.0 0.0 0.0
-0.19197811 0.17128059 1.0713737 0.0 0.0 0.0
-0.19081882 0.16983885 1.0701251 0.0 0.0 0.0
-0.19089742 0.17080691 1.0708357 0.0 0.0 0.0
-0.19114046 0.17255098 1.072973 0.0 0.0 0.0
-0.17035234 0.17864574 1.0637811 0.0 0.0 0.0
-0.17049645 0.17847623 1.0638855 0.0 0.0 0.0
-0.17191708 0.17688926 1.0648537 0.0 0.0 0.0
-0.19293767 0.17099681 1.0714663 0.0 0.0 0.0
-0.19300774 0.17188254 1.0721008 0.0 0.0 0.0
-0.18934505 0.17408359 1.0744948 0.0 0.0 0.0
-0.19276926 0.16972634 1.0699821 0.0 0.0 0.0
-0.19307534 0.17261477 1.0727063 0.0 0.0 0.0
-0.19435672 0.17242129 1.0726979 0.0 0.0 0.0
-0.17249218 0.17639457 1.0651404 0.0 0.0 0.0
-0.17361899 0.17530367 1.0657889 0.0 0.0 0.0
-0.19471471 0.16967179 1.0697989 0.0 0.0 0.0
-0.19130163 0.17390348 1.0743996 0.0 0.0 0.0
-0.19490963 0.17064214 1.0714937 0.0 0.0 0.0
-0.19504315 0.17230664 1.0727011 0.0 0.0 0.0
-0.19508992 0.17278221 1.0731193 0.0 0.0 0.0
-0.19665183 0.16970988 1.0695503 0.0 0.0 0.0
-0.1932323 0.17401402 1.0741001 0.0 0.0 0.0
-0.19344676 0.17461981 1.075943 0.0 0.0 0.0
-0.17459933 0.17451385 1.0662395 0.0 0.0 0.0
-0.17585874 0.17372119 1.06666 0.0 0.0 0.0
-0.19684041 0.17075351 1.0711938 0.0 0.0 0.0
-0.19518328 0.17389598 1.0739614 0.0 0.0 0.0
-0.19855642 0.17011604 1.0690433 0.0 0.0 0.0
-0.19870324 0.1701908 1.0689734 0.0 0.0 0.0
-0.17664814 0.17329288 1.0668752 0.0 0.0 0.0
-0.17863755 0.17214173 1.0674679 0.0 0.0 0.0
-0.1969858 0.17228389 1.0724953 0.0 0.0 0.0
-0.19704646 0.17289865 1.0730381 0.0 0.0 0.0
-0.19809909 0.17244205 1.0722553 0.0 0.0 0.0
-0.19874977 0.17110536 1.0707247 0.0 0.0 0.0
-0.19883877 0.17199142 1.0715204 0.0 0.0 0.0
-0.19914791 0.17132056 1.0705262 0.0 0.0 0.0
-0.19710748 0.1740808 1.0736097 0.0 0.0 0.0
-0.2004274 0.17090181 1.0682696 0.0 0.0 0.0
-0.17869461 0.17209621 1.0674939 0.0 0.0 0.0
-0.17874247 0.17246543 1.0679158 0.0 0.0 0.0
-0.19889526 0.17263409 1.0720274 0.0 0.0 0.0
-0.20059247 0.17220913 1.069728 0.0 0.0 0.0
-0.16798238 0.18063706 1.0604646 0.0 0.0 0.0
-0.16798766 0.1805249 1.0603042 0.0 0.0 0.0
-0.16912135 0.17893633 1.0613065 0.0 0.0 0.0
-0.20234656 0.17114232 1.067879 0.0 0.0 0.0
-0.19904403 0.17412584 1.0733563 0.0 0.0 0.0
-0.2007845 0.17321227 1.0713997 0.0 0.0 0.0
-0.18072343 0.17109992 1.0679718 0.0 0.0 0.0
-0.1818618 0.1705647 1.0682229 0.0 0.0 0.0
-0.20253477 0.17218907 1.0695204 0.0 0.0 0.0
-0.17016537 0.17758411 1.0621504 0.0 0.0 0.0
-0.17038131 0.17734839 1.0622935 0.0 0.0 0.0
-0.17181803 0.17576131 1.06326 0.0 0.0 0.0
-0.20428097 0.17121194 1.0676084 0.0 0.0 0.0
-0.20538501 0.1718228 1.067047 0.0 0.0 0.0
-0.20091338 0.17492996 1.0725701 0.0 0.0 0.0
-0.20101042 0.17592324 1.0734377 0.0 0.0 0.0
-0.20270023 0.17518999 1.0721805 0.0 0.0 0.0
-0.20269285 0.17357543 1.070923 0.0 0.0 0.0
-0.20282598 0.17516041 1.0721225 0.0 0.0 0.0
-0.2037074 0.17406826 1.0704559 0.0 0.0 0.0
-0.18274389 0.17019826 1.0683833 0.0 0.0 0.0
-0.20442773 0.17272623 1.0689213 0.0 0.0 0.0
-0.20446886 0.17332156 1.0692968 0.0 0.0 0.0
-0.20471875 0.17294648 1.0687312 0.0 0.0 0.0
-0.17229871 0.17540768 1.0634571 0.0 0.0 0.0
-0.17370275 0.17417686 1.0641736 0.0 0.0 0.0
-0.20611617 0.17240147 1.0665514 0.0 0.0 0.0
-0.20732601 0.17342851 1.0656817 0.0 0.0 0.0
-0.20282835 0.17521809 1.0721459 0.0 0.0 0.0
-0.18473311 0.16964753 1.0685482 0.0 0.0 0.0
-0.20455271 0.17448716 1.0700607 0.0 0.0 0.0
-0.20626026 0.17394556 1.0678432 0.0 0.0 0.0
-0.20695756 0.17455389 1.0673302 0.0 0.0 0.0
-0.20791392 0.17401333 1.0651976 0.0 0.0 0.0
-0.20872769 0.1750313 1.0643795 0.0 0.0 0.0
-0.17440137 0.17357782 1.0645205 0.0 0.0 0.0
-0.17564406 0.17259271 1.0650805 0.0 0.0 0.0
-0.20471613 0.17581348 1.0715059 0.0 0.0 0.0
-0.20647384 0.17680587 1.070598 0.0 0.0 0.0
-0.18670216 0.16932647 1.068552 0.0 0.0 0.0
-0.20641468 0.17537478 1.0692159 0.0 0.0 0.0
-0.20654608 0.17666553 1.0703888 0.0 0.0 0.0
-0.20676045 0.17568018 1.0689589 0.0 0.0 0.0
-0.20977625 0.17775939 1.0647247 0.0 0.0 0.0
-0.20804462 0.17570879 1.0663835 0.0 0.0 0.0
-0.20852196 0.17615749 1.0660092 0.0 0.0 0.0
-0.1764745 0.17208064 1.0653503 0.0 0.0 0.0
-0.2110631 0.17823419 1.0618309 0.0 0.0 0.0
-0.20965482 0.17626759 1.0633926 0.0 0.0 0.0
-0.20978804 0.17766301 1.0645859 0.0 0.0 0.0
-0.20995821 0.17663303 1.0630976 0.0 0.0 0.0
-0.20656337 0.17686698 1.0705442 0.0 0.0 0.0
-0.20805185 0.17840961 1.0692753 0.0 0.0 0.0
-0.18866488 0.16907685 1.0685055 0.0 0.0 0.0
-0.18891749 0.16900893 1.068525 0.0 0.0 0.0
-0.20969605 0.17888631 1.0663394 0.0 0.0 0.0
-0.20980071 0.17779166 1.0646989 0.0 0.0 0.0
-0.21110466 0.17936178 1.0634311 0.0 0.0 0.0
-0.17849715 0.17115399 1.065779 0.0 0.0 0.0
-0.17865805 0.17193981 1.0671775 0.0 0.0 0.0
-0.17885053 0.17101562 1.0658375 0.0 0.0 0.0
-0.21248747 0.18143205 1.0593899 0.0 0.0 0.0
-0.21137141 0.17879483 1.0613961 0.0 0.0 0.0
-0.21188319 0.17983362 1.0605977 0.0 0.0 0.0
-0.20995167 0.17925888 1.0660448 0.0 0.0 0.0
-0.21090282 0.18048795 1.0650605 0.0 0.0 0.0
-0.19064897 0.1685854 1.0686288 0.0 0.0 0.0
-0.20834176 0.17869674 1.0690376 0.0 0.0 0.0
-0.20962341 0.18001333 1.0679531 0.0 0.0 0.0
-0.21311174 0.18415758 1.0597852 0.0 0.0 0.0
-0.21263272 0.18256009 1.0609781 0.0 0.0 0.0
-0.21150973 0.18040571 1.0626411 0.0 0.0 0.0
-0.21174486 0.18096019 1.0622194 0.0 0.0 0.0
-0.18052137 0.17020985 1.0662206 0.0 0.0 0.0
-0.18211065 0.16943866 1.0665884 0.0 0.0 0.0
-0.21294083 0.18298398 1.0582325 0.0 0.0 0.0
-0.21307372 0.18388252 1.0593982 0.0 0.0 0.0
-0.21295741 0.18302946 1.0581983 0.0 0.0 0.0
-0.21284889 0.18528371 1.0614215 0.0 0.0 0.0
-0.21268578 0.18368776 1.0625769 0.0 0.0 0.0
-0.21167596 0.18169995 1.0641087 0.0 0.0 0.0
-0.21176222 0.18283837 1.0648915 0.0 0.0 0.0
-0.21192034 0.18208857 1.0638039 0.0 0.0 0.0
-0.19258319 0.1686552 1.0683581 0.0 0.0 0.0
-0.21170159 0.18321478 1.0654351 0.0 0.0 0.0
-0.21010508 0.18069793 1.0674103 0.0 0.0 0.0
-0.21084116 0.18161497 1.066673 0.0 0.0 0.0
-0.18254979 0.16921863 1.0666947 0.0 0.0 0.0
-0.194535 0.16852807 1.0682259 0.0 0.0 0.0
-0.21288428 0.18641119 1.0630225 0.0 0.0 0.0
-0.21180411 0.18342479 1.0652736 0.0 0.0 0.0
-0.21255256 0.18481438 1.0641983 0.0 0.0 0.0
-0.18455206 0.16852032 1.0669637 0.0 0.0 0.0
-0.19646692 0.16862661 1.0679346 0.0 0.0 0.0
-0.18651572 0.16825938 1.066925 0.0 0.0 0.0
-0.18808974 0.16787696 1.0670174 0.0 0.0 0.0
-0.19839604 0.16875483 1.0676229 0.0 0.0 0.0
-0.19979841 0.16906947 1.0672386 0.0 0.0 0.0
-0.18849909 0.16777608 1.0670427 0.0 0.0 0.0
-0.18859574 0.16853881 1.0678961 0.0 0.0 0.0
-0.20029226 0.16925548 1.0670495 0.0 0.0 0.0
-0.19047883 0.16733345 1.0671319 0.0 0.0 0.0
-0.20215915 0.17008634 1.0662444 0.0 0.0 0.0
-0.19242229 0.16730063 1.066933 0.0 0.0 0.0
-0.20410421 0.17003587 1.066058 0.0 0.0 0.0
-0.20506281 0.17069358 1.0654799 0.0 0.0 0.0
-0.19434662 0.16748336 1.0665829 0.0 0.0 0.0
-0.20594198 0.17119564 1.0650219 0.0 0.0 0.0
-0.20776007 0.17230363 1.0640248 0.0 0.0 0.0
-0.19625169 0.16788457 1.0660796 0.0 0.0 0.0
-0.20778246 0.17232485 1.0640072 0.0 0.0 0.0
-0.20902036 0.17390548 1.0627397 0.0 0.0 0.0
-0.19819413 0.16786319 1.065873 0.0 0.0 0.0
-0.21109523 0.1771069 1.0602217 0.0 0.0 0.0
-0.20952015 0.17461497 1.0621769 0.0 0.0 0.0
-0.21016291 0.17550692 1.0614682 0.0 0.0 0.0
-0.20012817 0.16793627 1.0655999 0.0 0.0 0.0
-0.20013376 0.16798325 1.0656497 0.0 0.0 0.0
-0.20014334 0.16794406 1.0655925 0.0 0.0 0.0
-0.21228202 0.18030341 1.057809 0.0 0.0 0.0
-0.21122181 0.1773122 1.0600611 0.0 0.0 0.0
-0.2121634 0.17870781 1.0589591 0.0 0.0 0.0
-0.20200689 0.1686337 1.0648884 0.0 0.0 0.0
-0.21279953 0.18140668 1.0569639 0.0 0.0 0.0
-0.21306352 0.18190265 1.0565804 0.0 0.0 0.0
-0.20391616 0.1689876 1.064418 0.0 0.0 0.0
-0.20475584 0.16956462 1.0639112 0.0 0.0 0.0
-0.20575857 0.17009486 1.0634187 0.0 0.0 0.0
-0.20929517 0.17277974 1.0611018 0.0 0.0 0.0
-0.20762533 0.17092812 1.0626117 0.0 0.0 0.0
-0.20777558 0.17224933 1.0639455 0.0 0.0 0.0
-0.20794661 0.1711773 1.0623976 0.0 0.0 0.0
-0.20939231 0.17288761 1.0610139 0.0 0.0 0.0
-0.21039636 0.17438081 1.0598353 0.0 0.0 0.0
-0.21268708 0.17917837 1.0561558 0.0 0.0 0.0
-0.21207742 0.17757988 1.0573642 0.0 0.0 0.0
-0.2110945 0.17557837 1.0589023 0.0 0.0 0.0
-0.21117876 0.17672639 1.0596691 0.0 0.0 0.0
-0.21134259 0.17598101 1.0585871 0.0 0.0 0.0
-0.21270746 0.17927589 1.056084 0.0 0.0 0.0
-0.21297324 0.18077488 1.0549858 0.0 0.0 0.0
-0.16382974 0.19317822 1.068624 0.0 0.0 0.0
-0.16452174 0.19158702 1.0696783 0.0 0.0 0.0
-0.16520201 0.19009508 1.0706636 0.0 0.0 0.0
-0.16521317 0.19001032 1.0707533 0.0 0.0 0.0
-0.16525185 0.18999618 1.0707284 0.0 0.0 0.0
-0.16867334 0.21662724 1.0513654 0.0 0.0 0.0
-0.16962071 0.21713455 1.0508957 0.0 0.0 0.0
-0.1705299 0.21757603 1.0504773 0.0 0.0 0.0
-0.17241798 0.21816699 1.0498407 0.0 0.0 0.0
-0.19197473 0.21963021 1.0489718 0.0 0.0 0.0
-0.16429207 0.19683821 1.0635554 0.0 0.0 0.0
-0.17431146 0.21869947 1.0492446 0.0 0.0 0.0
-0.1743132 0.21879804 1.0492653 0.0 0.0 0.0
-0.17445192 0.21875635 1.0491883 0.0 0.0 0.0
-0.19398797 0.21881059 1.0493257 0.0 0.0 0.0
-0.19485021 0.21840209 1.0495182 0.0 0.0 0.0
-0.16333894 0.21049553 1.0558637 0.0 0.0 0.0
-0.16345808 0.20876363 1.0567901 0.0 0.0 0.0
-0.16359307 0.20713061 1.0578552 0.0 0.0 0.0
-0.16478895 0.20641069 1.056679 0.0 0.0 0.0
-0.16371582 0.2054213 1.0588129 0.0 0.0 0.0
-0.16466047 0.20481499 1.0578306 0.0 0.0 0.0
-0.16381536 0.20356749 1.0595679 0.0 0.0 0.0
-0.1642566 0.20321777 1.0590146 0.0 0.0 0.0
-0.16393858 0.20186059 1.0605294 0.0 0.0 0.0
-0.16424167 0.20162278 1.0601524 0.0 0.0 0.0
-0.16404592 0.20005515 1.0613525 0.0 0.0 0.0
-0.16408044 0.20002697 1.0613079 0.0 0.0 0.0
-0.16430426 0.19705844 1.0633968 0.0 0.0 0.0
-0.16420558 0.19857654 1.062634 0.0 0.0 0.0
