# .PCD v0.7 - Point Cloud Data file format
VERSION 0.7
FIELDS x y z rgb
SIZE 4 4 4 4
TYPE F F F F
COUNT 1 1 1 1
WIDTH 1023
HEIGHT 1
VIEWPOINT 0 0 0 1 0 0 0
POINTS 1023
DATA ascii
-0.17713536 0.17900537 0.98808831 1.3421284e-38
-0.17562558 0.18048619 0.99202269 1.3329451e-38
-0.17686076 0.18090679 0.9915818 1.3329808e-38
-0.17427433 0.18334937 0.99736267 1.323762e-38
-0.17732546 0.18003142 0.98974407 1.3421279e-38
-0.17597803 0.18285072 0.99511492 1.3329812e-38
-0.17702104 0.18316238 0.99477357 1.3421652e-38
-0.17767768 0.18239787 0.99283475 1.332981e-38
-0.17903495 0.17946856 0.98754114 1.3330519e-38
-0.1775049 0.18117797 0.99131519 1.3329808e-38
-0.17616659 0.1838928 0.99675936 1.3329815e-38
-0.17723008 0.18429089 0.9963541 1.3421654e-38
-0.17920902 0.18067479 0.9890703 1.3331243e-38
-0.17786592 0.18344513 0.99447554 1.3421652e-38
-0.17957732 0.18286061 0.99228793 1.3422735e-38
-0.18093774 0.1798947 0.98702019 1.3240487e-38
-0.17940521 0.18163174 0.99077475 1.3422e-38
-0.17804393 0.18460707 0.99603605 1.3421654e-38
-0.18112156 0.18099087 0.98862666 1.3240489e-38
-0.1797604 0.1839657 0.99388826 1.3514562e-38
-0.18288857 0.17977941 0.98687947 1.3332692e-38
-0.18148933 0.18318225 0.99184042 1.3515641e-38
-0.18131265 0.1820057 0.99029028 1.3332332e-38
-0.18305653 0.18105373 0.98836076 1.3424886e-38
-0.17995347 0.18495813 0.9955678 1.3422731e-38
-0.18168868 0.18410315 0.99356997 1.3423813e-38
-0.1848823 0.17917819 0.98707986 1.3516006e-38
-0.18548407 0.17869996 0.98735183 1.3516006e-38
-0.18344127 0.18305349 0.99170917 1.3425249e-38
-0.18532173 0.18208121 0.99218696 1.360856e-38
-0.18325442 0.18199164 0.99007857 1.3425249e-38
-0.18507572 0.18016611 0.98876244 1.3424528e-38
-0.18558685 0.17982788 0.98894501 1.3424528e-38
-0.18185435 0.18540511 0.99503201 1.3424173e-38
-0.18363142 0.18407927 0.99336505 1.3333419e-38
-0.18542087 0.183209 0.99378073 1.3425609e-38
-0.18692265 0.17805219 0.98764908 1.3424529e-38
-0.18523161 0.18157786 0.99014729 1.3424528e-38
-0.18544506 0.18193983 0.99197018 1.360856e-38
-0.18599637 0.18095753 0.99050182 1.3424528e-38
-0.18547331 0.18202081 0.99221259 1.360856e-38
-0.18710414 0.17917377 0.98923767 1.3424169e-38
-0.18380125 0.1853328 0.99486113 1.3424535e-38
-0.18535426 0.18433611 0.99539357 1.3425611e-38
-0.1856558 0.18313183 0.99380881 1.3425609e-38
-0.18891823 0.17743051 0.98786378 1.3333052e-38
-0.18966278 0.17712823 0.98799407 1.3333052e-38
-0.18729274 0.18021731 0.99088109 1.3424169e-38
-0.18927732 0.17938074 0.99125034 1.3516366e-38
-0.18747272 0.18135685 0.99245727 1.3333417e-38
-0.18909322 0.18050715 0.99287724 1.3332335e-38
-0.18912521 0.17826487 0.98965412 1.3424888e-38
-0.18922925 0.17889442 0.99056387 1.3516366e-38
-0.18916799 0.17825285 0.98965776 1.3424888e-38
-0.18585107 0.18409902 0.99550575 1.3425611e-38
-0.18768072 0.18218012 0.9942553 1.3424169e-38
-0.1887181 0.18163234 0.99452698 1.3240858e-38
-0.19092289 0.1767066 0.98815048 1.2965712e-38
-0.18930797 0.17937317 0.99125218 1.3516366e-38
-0.1895017 0.18035783 0.99293703 1.3332335e-38
-0.19110624 0.17780805 0.98975331 1.3149741e-38
-0.18788125 0.18308775 0.99599433 1.342453e-38
-0.18875457 0.18275999 0.99612772 1.342453e-38
-0.18969649 0.1813312 0.99462986 1.3240858e-38
-0.19290741 0.17620979 0.98827767 1.2966793e-38
-0.19128966 0.17890875 0.99135661 1.3150101e-38
-0.19148241 0.1799044 0.99303371 1.3149746e-38
-0.19309728 0.17723779 0.989932 1.3058628e-38
-0.19473858 0.17668882 0.99013567 1.3059344e-38
-0.18986952 0.18254896 0.99615103 1.3240862e-38
-0.19166632 0.18099947 0.99464101 1.3149746e-38
-0.19490072 0.17561385 0.98847443 1.305827e-38
-0.19495977 0.17590187 0.98898721 1.305827e-38
-0.19502027 0.17556305 0.98849696 1.305827e-38
-0.19328088 0.17833732 0.9915362 1.3058628e-38
-0.19488305 0.17781702 0.99172366 1.2967507e-38
-0.19346562 0.17942262 0.99315041 1.3058269e-38
-0.1949005 0.17894453 0.99332714 1.2967512e-38
-0.1950974 0.17656538 0.99018258 1.3059344e-38
-0.19185227 0.18207224 0.99626404 1.3058272e-38
-0.19364949 0.18051776 0.99475771 1.3058269e-38
-0.19498017 0.18007225 0.99492288 1.2966435e-38
-0.19691403 0.17479241 0.98882961 1.296536e-38
-0.19881625 0.17398916 0.9891845 1.2963568e-38
-0.19528088 0.17766564 0.99178624 1.2967507e-38
-0.19546962 0.17870657 0.99343163 1.2967512e-38
-0.19709973 0.17586789 0.99045062 1.3057556e-38
-0.19881536 0.17511657 0.99078965 1.2965003e-38
-0.19384469 0.18148725 0.99645299 1.305827e-38
-0.19483319 0.18119884 0.99654543 1.305827e-38
-0.19565335 0.17980388 0.99503684 1.2966435e-38
-0.19893134 0.17392603 0.98921609 1.2963568e-38
-0.19728912 0.17690186 0.99210072 1.2873524e-38
-0.19903669 0.17624515 0.99236906 1.2965003e-38
-0.19748615 0.17784898 0.99381226 1.2874239e-38
-0.19880128 0.17737113 0.99400204 1.2965719e-38
-0.19912198 0.17494515 0.99087691 1.2965003e-38
-0.19584182 0.18084836 0.99667996 1.2966791e-38
-0.19766594 0.17899065 0.9953866 1.2874239e-38
-0.1988183 0.17849876 0.99560541 1.2967514e-38
-0.20097785 0.17272952 0.98983479 1.2962138e-38
-0.20166662 0.17241007 0.98998368 1.2962138e-38
-0.19929954 0.17611203 0.99243379 1.2965003e-38
-0.16727941 0.14669992 1.0122293 1.61778e-38
-0.16834056 0.14511089 1.01324 1.8105254e-38
-0.19949724 0.17705116 0.99415058 1.2965719e-38
-0.2011542 0.17391036 0.99138182 1.314616e-38
-0.20185399 0.17353849 0.99156672 1.314616e-38
-0.16732508 0.14782742 1.0138292 1.8013061e-38
-0.16833931 0.14623822 1.0148455 1.8196366e-38
-0.19785511 0.18002613 0.99703556 1.2966792e-38
-0.19873972 0.17962559 0.99722028 1.2966792e-38
-0.1996856 0.17809749 0.99579191 1.2967514e-38
-0.16739556 0.14895521 1.015426 1.77361e-38
-0.16842042 0.14736599 1.0164413 1.8196364e-38
-0.20301118 0.17168239 0.99034846 1.5552584e-38
-0.20425504 0.17082958 0.99081379 1.7408014e-38
-0.20134836 0.17489024 0.99307001 1.3329472e-38
-0.20177816 0.17466539 0.99318123 1.3329472e-38
-0.16852038 0.14482221 1.0134251 1.8105254e-38
-0.16928345 0.1435211 1.0142648 1.8105609e-38
-0.17058812 0.14193341 1.0152469 1.8106693e-38
-0.20152961 0.17601475 0.9946568 1.3604981e-38
-0.20191932 0.17579357 0.99476975 1.3604981e-38
-0.16743146 0.15008289 1.0170273 1.7552075e-38
-0.16839463 0.14849316 1.0180495 1.8011618e-38
-0.16913097 0.14690234 1.0190988 1.773575e-38
-0.20320837 0.17262781 0.9920609 1.3613247e-38
-0.20408903 0.17195603 0.99243879 1.3613247e-38
-0.16873166 0.14560759 1.0152497 1.8196366e-38
-0.16938278 0.144649 1.0158583 1.8013428e-38
-0.170477 0.14306013 1.0168655 1.8197818e-38
-0.199882 0.17905189 0.99749815 1.2872444e-38
-0.20186675 0.17804804 0.9979865 1.406667e-38
-0.20172428 0.17698886 0.99634886 1.3606057e-38
-0.20186162 0.17773743 0.99754506 1.406667e-38
-0.20185848 0.17692062 0.99638224 1.3606057e-38
-0.16728982 0.1512094 1.0186492 1.7459879e-38
-0.16834816 0.14962028 1.01966 1.7919777e-38
-0.16928983 0.14803056 1.0206853 1.8196365e-38
-0.20508379 0.17019111 0.99117386 1.7408014e-38
-0.2062722 0.16924572 0.99171174 1.7593842e-38
-0.16892986 0.14654323 1.0169691 1.8013054e-38
-0.16915852 0.14677572 1.0189152 1.773575e-38
-0.16943894 0.14577658 1.0174571 1.8013054e-38
-0.17057045 0.14418809 1.0184594 1.8105967e-38
-0.20338809 0.17377092 0.99363434 1.3151567e-38
-0.20432115 0.17308459 0.99401659 1.3151567e-38
-0.20359227 0.17463675 0.99540257 1.3514979e-38
-0.20421763 0.17421138 0.99563432 1.3514979e-38
-0.17073253 0.14175594 1.0153569 1.8106693e-38
-0.17188166 0.14034565 1.0162303 1.8198176e-38
-0.16732804 0.15239438 1.0203319 1.8011974e-38
-0.16732222 0.15233693 1.0202506 1.8011974e-38
-0.16829224 0.1507473 1.0212722 1.7368399e-38
-0.16920078 0.14915752 1.0223011 1.8197443e-38
-0.20528759 0.17106286 0.99293792 1.5836719e-38
-0.2062003 0.17037265 0.99332565 1.5836719e-38
-0.17094383 0.1425419 1.017181 1.8197818e-38
-0.17196216 0.14147344 1.017826 1.801449e-38
-0.16918457 0.1468384 1.0191381 1.773575e-38
-0.17069019 0.14531609 1.0200505 1.8197082e-38
-0.20191422 0.17801689 0.9980033 1.406667e-38
-0.20204848 0.17890269 0.99918061 1.3882281e-38
-0.20377108 0.17579068 0.99696863 1.3702957e-38
-0.20443121 0.17533997 0.99721426 1.3702957e-38
-0.16937132 0.14790164 1.0207679 1.8196365e-38
-0.17037144 0.14644167 1.0216937 1.7921928e-38
-0.20720464 0.16815652 0.99238116 1.7038168e-38
-0.20765156 0.16765848 0.99268478 1.7038168e-38
-0.20915994 0.16607192 0.99364287 1.8611231e-38
-0.20547874 0.17207651 0.9946025 1.5459666e-38
-0.20610021 0.17149961 0.99494272 1.5459666e-38
-0.20570767 0.17266324 0.99656695 1.509017e-38
-0.20574775 0.17262495 0.99658972 1.509017e-38
-0.2077233 0.17104106 0.99749231 1.7409085e-38
-0.17114225 0.14347291 1.0189036 1.8105967e-38
-0.172052 0.14260131 1.0194205 1.8013423e-38
-0.17288284 0.13938791 1.0167981 1.8107408e-38
-0.17366561 0.13876073 1.0171555 1.8107408e-38
-0.20740062 0.16911487 0.99408454 1.740622e-38
-0.20769745 0.16878609 0.99428469 1.740622e-38
-0.20911098 0.16719897 0.99525392 1.8425039e-38
-0.17306364 0.14051828 1.0183805 1.8015569e-38
-0.17384268 0.13988888 1.0187398 1.8015569e-38
-0.16959533 0.14854437 1.0226927 1.8197443e-38
-0.17032516 0.14756878 1.0233046 1.7736819e-38
-0.20394637 0.17698334 0.99850738 1.4075328e-38
-0.20467217 0.17646869 0.99879104 1.4075328e-38
-0.17131934 0.14464532 1.0204568 1.8197082e-38
-0.17219253 0.14372936 1.0210094 1.8013766e-38
-0.20586458 0.17406382 0.99795949 1.5461475e-38
-0.20619255 0.17375483 0.99814218 1.5461475e-38
-0.20774654 0.17216839 0.99909484 1.6575364e-38
-0.17153819 0.14534748 1.0223398 1.810488e-38
-0.17215396 0.1448566 1.0226191 1.810488e-38
-0.20936072 0.16572316 0.99386829 1.8611231e-38
-0.21007283 0.16448195 0.99467123 1.8611236e-38
-0.21102318 0.1628924 0.99569517 1.8427209e-38
-0.20780148 0.17093351 0.99755979 1.7409085e-38
-0.2086871 0.16945133 0.99851447 1.6944886e-38
-0.2099686 0.16786355 0.9994992 1.8613415e-38
-0.20759684 0.17007153 0.99578887 1.8981465e-38
-0.20773451 0.17068356 0.9969818 1.7409085e-38
-0.20773229 0.16991365 0.99588579 1.8981465e-38
-0.20873891 0.16832425 0.99690318 1.8799988e-38
-0.17324725 0.14161737 1.019985 1.8014496e-38
-0.17394859 0.14101687 1.0203325 1.8014496e-38
-0.17497171 0.1377136 1.0177522 1.7830825e-38
-0.17599098 0.13717853 1.0180167 1.7646063e-38
-0.20956574 0.16658042 0.9956426 1.8425039e-38
-0.21015297 0.16560997 0.99626684 1.8240293e-38
-0.21103713 0.16401982 0.9972986 1.5640841e-38
-0.21169357 0.16242847 0.9983573 1.9073289e-38
-0.17515181 0.13885193 1.019329 1.7647147e-38
-0.1760422 0.13830626 1.0196161 1.7647147e-38
-0.17171201 0.14655578 1.0238675 1.8196724e-38
-0.17254287 0.14598614 1.0241784 1.8196724e-38
-0.17343336 0.14268725 1.02161 1.8105959e-38
-0.17414194 0.14214532 1.0219151 1.8105959e-38
-0.2060371 0.1752871 0.99947679 1.5833864e-38
-0.2064334 0.17488348 0.99971902 1.5833864e-38
-0.20776208 0.17329593 1.0006983 1.7130707e-38
-0.20801912 0.17164718 0.99943507 1.6575364e-38
-0.20863545 0.17057848 1.000126 1.8608364e-38
-0.20980065 0.16899003 1.0011246 1.898438e-38
-0.17364039 0.14352195 1.0234001 1.8197796e-38
-0.1739496 0.14327173 1.0235431 1.8197796e-38
-0.21163145 0.16199569 0.99626434 1.8705587e-38
-0.21181026 0.16203222 0.99777824 1.9073289e-38
-0.21200946 0.16130298 0.99671465 1.8705587e-38
-0.21251504 0.15971082 0.99779111 1.7130694e-38
-0.21302165 0.15811853 0.99886757 1.498034e-38
-0.21352224 0.15652645 0.99994445 1.5072539e-38
-0.21372698 0.15493269 1.0010566 1.7311519e-38
-0.2139778 0.1533391 1.0021633 1.8421077e-38
-0.21404165 0.15174465 1.0032918 1.7957935e-38
-0.21401164 0.15014941 1.0044316 1.7770681e-38
-0.21388699 0.14855382 1.0055827 1.4905438e-38
-0.21002135 0.16778022 0.99955279 1.8613415e-38
-0.21087064 0.16627361 1.0005289 1.7590591e-38
-0.21178921 0.16468382 1.0015568 1.7405858e-38
-0.17533299 0.13997777 1.0209147 1.8198879e-38
-0.17623255 0.13943465 1.0211989 1.8198879e-38
-0.20981035 0.16699019 0.99773121 1.7871869e-38
-0.20997421 0.16761632 0.99914634 1.8613415e-38
-0.20998248 0.1667363 0.99789232 1.7871869e-38
-0.21107984 0.16514751 0.99889886 1.6756549e-38
-0.21189456 0.16355701 0.99993885 1.8516867e-38
-0.17700182 0.13670248 1.0182406 1.7646063e-38
-0.17862549 0.13559824 1.0188417 1.8016291e-38
-0.21190836 0.16204178 0.99860853 1.9073289e-38
-0.21255222 0.16083837 0.99939221 1.8705581e-38
-0.2129778 0.15924582 1.0004779 1.5736976e-38
-0.21347721 0.1576536 1.0015552 1.5071468e-38
-0.21379368 0.15606041 1.0026541 1.7311159e-38
-0.2138831 0.15446594 1.0037796 1.7493732e-38
-0.21409047 0.15287216 1.0048915 1.8143404e-38
-0.21394058 0.15127639 1.0060455 1.4530523e-38
-0.21371907 0.14968021 1.0072079 1.7119571e-38
-0.17719769 0.13766257 1.0199426 1.7922649e-38
-0.17870843 0.13672605 1.0204371 1.7832256e-38
-0.17550483 0.14120923 1.0224262 1.8014128e-38
-0.17635806 0.14056276 1.0227894 1.8014128e-38
-0.17382623 0.14459567 1.0250224 1.829e-38
-0.17391656 0.14485279 1.0257988 1.829e-38
-0.17401209 0.14439936 1.025141 1.829e-38
-0.20822798 0.17246142 1.0012395 1.7315804e-38
-0.20869608 0.17170618 1.0017242 1.7315804e-38
-0.2097187 0.17011693 1.0027397 1.7313682e-38
-0.21024524 0.16842397 1.0014769 1.898438e-38
-0.21098225 0.16740158 1.0021211 1.7311867e-38
-0.21177717 0.16581109 1.0031633 1.7962638e-38
-0.21236357 0.16421942 1.0042303 1.8427207e-38
-0.17570446 0.14212717 1.024158 1.8014842e-38
-0.17627779 0.14168973 1.0244042 1.8014842e-38
-0.21232045 0.16373229 1.0021738 1.8705228e-38
-0.21248095 0.16373897 1.0035313 1.8427207e-38
-0.21261041 0.16309339 1.0025959 1.8705228e-38
-0.21300031 0.16150065 1.0036858 1.7409795e-38
-0.21333912 0.15990761 1.0047821 1.5639015e-38
-0.2136936 0.15831462 1.0058765 1.4792034e-38
-0.21395552 0.15672113 1.006982 1.7776819e-38
-0.2141345 0.15512718 1.0080968 1.7216074e-38
-0.21393988 0.15353115 1.0092561 1.6841534e-38
-0.2139499 0.15193631 1.0103911 1.66557e-38
-0.17738342 0.13873719 1.0215644 1.7831175e-38
-0.1787017 0.13785335 1.0220432 1.8108124e-38
-0.17906435 0.13532464 1.0189863 1.8016291e-38
-0.21208103 0.16326426 1.0001261 1.8516867e-38
-0.21265408 0.16196635 1.0009854 1.8059144e-38
-0.21296546 0.16037311 1.0020847 1.6570686e-38
-0.21327691 0.15877984 1.0031842 1.471562e-38
-0.21379365 0.15718776 1.0042595 1.5635428e-38
-0.21397731 0.15559386 1.0053738 1.7777178e-38
-0.21407826 0.15399957 1.0064982 1.814377e-38
-0.21395908 0.15240385 1.0076487 1.6096411e-38
-0.21381792 0.15080816 1.0088016 1.7027015e-38
-0.17924972 0.13640383 1.0206046 1.7832256e-38
-0.17758378 0.13964671 1.023302 1.7924104e-38
-0.17847881 0.13897958 1.023675 1.7924104e-38
-0.2104734 0.1690198 1.0034348 1.8519415e-38
-0.21079665 0.16852804 1.0037483 1.8519415e-38
-0.21177793 0.16693857 1.0047684 1.8054841e-38
-0.21240877 0.16534702 1.0058302 1.7589884e-38
-0.17591399 0.14293385 1.0259676 1.792337e-38
-0.17607702 0.14281599 1.026033 1.792337e-38
-0.21261671 0.16355841 1.0046724 1.8427207e-38
-0.21297312 0.16262791 1.0052943 1.7872571e-38
-0.21331744 0.16103478 1.0063901 1.6197228e-38
-0.2136482 0.15944172 1.0074872 1.4981069e-38
-0.21402174 0.15784886 1.0085793 1.47009e-38
-0.2142421 0.15625519 1.0096893 1.6385613e-38
-0.21408501 0.15465932 1.0108442 1.6842254e-38
-0.21365754 0.15181078 1.0129224 1.6936252e-38
-0.21399964 0.15306388 1.0119907 1.6934085e-38
-0.17777459 0.14066456 1.0249634 1.8199962e-38
-0.17856264 0.14010738 1.0252703 1.8199962e-38
-0.17944224 0.13740174 1.0222805 1.8108124e-38
-0.18147863 0.13627391 1.0228512 1.7925907e-38
-0.1811139 0.1340948 1.0196285 1.7926611e-38
-0.18127289 0.13401808 1.0196649 1.7926611e-38
-0.18129794 0.1351887 1.0212364 1.8018096e-38
-0.18147251 0.13620993 1.022761 1.7925907e-38
-0.18140793 0.13514619 1.0212542 1.8018096e-38
-0.17965239 0.13820083 1.0240954 1.7646787e-38
-0.18138677 0.13740079 1.0244672 1.7835143e-38
-0.21282937 0.16433163 1.0065056 1.8702337e-38
-0.21299331 0.16445892 1.0078992 1.8704521e-38
-0.21304622 0.1637557 1.0068913 1.8702337e-38
-0.21336363 0.1621625 1.0079899 1.6569982e-38
-0.21367016 0.16056927 1.0090898 1.5913807e-38
-0.21409285 0.15897666 1.0101761 1.4980699e-38
-0.21412943 0.15738192 1.011308 1.7029166e-38
-0.21416037 0.15578716 1.0124407 1.6935891e-38
-0.21383931 0.15293039 1.0145125 1.6564954e-38
-0.21417518 0.15419227 1.0135753 1.6842974e-38
-0.17797415 0.1415824 1.0266951 1.8017014e-38
-0.17848751 0.14123434 1.0268842 1.8017014e-38
-0.17983924 0.13926306 1.0257256 1.8109563e-38
-0.18122721 0.13852723 1.0260915 1.783586e-38
-0.18148288 0.13627237 1.0228518 1.7925907e-38
-0.18311509 0.13340998 1.0198877 1.8018452e-38
-0.18328477 0.13466689 1.0213813 1.7926623e-38
-0.18167353 0.13729157 1.0245123 1.7835143e-38
-0.18002704 0.14031497 1.0273635 1.801773e-38
-0.1814682 0.13965605 1.0276682 1.8018811e-38
-0.18186855 0.13826174 1.0262072 1.783586e-38
-0.18348007 0.13563305 1.023079 1.7926265e-38
-0.18508439 0.1330847 1.0198942 1.8017014e-38
-0.18527521 0.13410315 1.0215554 1.8016291e-38
-0.18366328 0.13673642 1.0246806 1.7927693e-38
-0.18204354 0.13945767 1.0277437 1.8018811e-38
-0.18385093 0.13778934 1.0263172 1.7743673e-38
-0.18546474 0.13513477 1.0232073 1.8016288e-38
-0.18702501 0.13308375 1.0196732 1.7741506e-38
-0.18722269 0.13402399 1.0213892 1.7925177e-38
-0.18562865 0.13645513 1.0246563 1.7924093e-38
-0.18403295 0.13890573 1.0279096 1.7835143e-38
-0.18582393 0.13742276 1.0263529 1.801809e-38
-0.18896791 0.13305713 1.0194702 1.7743311e-38
-0.18741535 0.1350213 1.0230651 1.8203219e-38
-0.18916191 0.13403858 1.0211571 1.7743671e-38
-0.18761088 0.13598469 1.0247649 1.8295042e-38
-0.18599373 0.13867691 1.0278486 1.7650405e-38
-0.18777393 0.13731603 1.0262063 1.7650761e-38
-0.190924 0.13288213 1.0193713 1.7651476e-38
-0.18935324 0.13505083 1.0228227 1.8204291e-38
-0.19109367 0.13413891 1.0208651 1.8020269e-38
-0.18952094 0.13632822 1.0243019 1.8111369e-38
-0.19116174 0.13586006 1.024448 1.755893e-38
-0.18794957 0.13850465 1.0277479 1.7650761e-38
-0.19285974 0.1329367 1.0191113 1.8021346e-38
-0.1897226 0.13722433 1.0260489 1.7558208e-38
-0.19158201 0.13698992 1.0260035 1.7743314e-38
-0.19131003 0.13486746 1.0227295 1.7928423e-38
-0.19140036 0.13522275 1.0235102 1.7928423e-38
-0.1917682 0.13473618 1.0227709 1.7928423e-38
-0.19303909 0.13408296 1.0206827 1.8021692e-38
-0.19317701 0.13421792 1.0218552 1.755893e-38
-0.19151422 0.13573478 1.024497 1.755893e-38
-0.19267635 0.1358685 1.0242689 1.7744036e-38
-0.18991119 0.13826694 1.0276932 1.7742595e-38
-0.19054973 0.13811149 1.0277308 1.7742595e-38
-0.19168501 0.13697779 1.0260003 1.7743314e-38
-0.19477209 0.13325453 1.0186663 1.8020986e-38
-0.19328761 0.13444902 1.0228019 1.755893e-38
-0.19340566 0.1356435 1.0238563 1.7744036e-38
-0.19408083 0.13474891 1.0224975 1.755893e-38
-0.19493756 0.13455789 1.0201272 1.755856e-38
-0.19188954 0.13783982 1.0277714 1.765148e-38
-0.19198824 0.13888794 1.0286549 1.7559279e-38
-0.1934284 0.13603075 1.0240674 1.7744036e-38
-0.19351454 0.13632233 1.0248094 1.7744036e-38
-0.19669491 0.13345519 1.0183035 1.765219e-38
-0.19363569 0.13686237 1.0258595 1.774332e-38
-0.19392525 0.13700286 1.0257264 1.774332e-38
-0.19510956 0.13578817 1.0216397 1.7005389e-38
-0.19689941 0.13431799 1.020074 1.7928431e-38
-0.19532433 0.1365348 1.0234917 1.7835164e-38
-0.19865364 0.13324927 1.0182264 1.9706783e-38
-0.1938075 0.13809487 1.0273703 1.7742959e-38
-0.19387011 0.13853887 1.0279206 1.7742959e-38
-0.19390552 0.13813017 1.027334 1.7742959e-38
-0.19549522 0.13777731 1.0249953 1.7651484e-38
-0.19702947 0.13602117 1.0212544 1.7468166e-38
-0.19880629 0.13469735 1.0195858 1.7559633e-38
-0.20050904 0.13365741 1.0201323 1.9712546e-38
-0.19722363 0.13700034 1.0229428 1.7467443e-38
-0.20062672 0.13288254 1.0182623 1.9901622e-38
-0.20076533 0.13320105 1.0194498 1.9712546e-38
-0.19740854 0.13808428 1.0245582 1.737488e-38
-0.19567651 0.13890278 1.0265814 1.7835515e-38
-0.19899958 0.1356871 1.0212673 1.7468159e-38
-0.20089126 0.13478683 1.0216924 1.8323878e-38
-0.20085368 0.13349158 1.0202109 1.9712546e-38
-0.20137019 0.13366216 1.0200305 1.9712546e-38
-0.19916709 0.13696752 1.0227442 1.7743671e-38
-0.20258702 0.13265893 1.0181975 1.7762404e-38
-0.19759475 0.13915424 1.026183 1.7650747e-38
-0.19934875 0.13808829 1.0243336 1.8111731e-38
-0.20102368 0.13474378 1.021708 1.8323878e-38
-0.20108905 0.13521953 1.0222832 1.8323878e-38
-0.20123148 0.13478878 1.0216521 1.8323878e-38
-0.20274894 0.13400251 1.0196304 1.7579829e-38
-0.20118724 0.13606891 1.0231535 1.9443172e-38
-0.2044431 0.13361223 1.0173064 1.7120647e-38
-0.20513694 0.13415059 1.0168434 1.7120647e-38
-0.19956006 0.13887437 1.0261577 1.9715803e-38
-0.20135131 0.1373879 1.0246035 1.9718305e-38
-0.20458566 0.13517477 1.0185852 1.804762e-38
-0.20462334 0.13556553 1.0189228 1.804762e-38
-0.2046565 0.13527536 1.0185057 1.804762e-38
-0.20291331 0.13531765 1.0210831 1.7865759e-38
-0.20433594 0.13640097 1.0201488 1.7859995e-38
-0.20305488 0.1368919 1.0223539 1.9609912e-38
-0.20425659 0.1375279 1.0217636 1.7032029e-38
-0.20155008 0.13831599 1.0263282 1.9344487e-38
-0.2062463 0.13516301 1.0159957 1.7023411e-38
-0.20666769 0.13575418 1.0155264 1.7023411e-38
-0.20321304 0.13827747 1.0237572 1.988938e-38
-0.20391466 0.13865334 1.0234091 1.988938e-38
-0.20473216 0.13669251 1.0198959 1.7859995e-38
-0.20645157 0.13800758 1.0187624 1.6473823e-38
-0.2063759 0.13687085 1.0171723 1.7118105e-38
-0.20640238 0.13704924 1.0174041 1.7118105e-38
-0.20638475 0.13687986 1.0171652 1.7118105e-38
-0.20490763 0.13788222 1.0214366 1.7032029e-38
-0.20651108 0.13913541 1.0203605 1.7404048e-38
-0.20339532 0.1393919 1.0253509 1.8870905e-38
-0.20385727 0.1397804 1.0250213 1.8870905e-38
-0.20960717 0.13896038 1.0129062 1.5550422e-38
-0.20799649 0.13731097 1.0142653 1.6195443e-38
-0.2080401 0.13735683 1.0142277 1.6195443e-38
-0.20507082 0.13921261 1.0228786 1.7778949e-38
-0.20631932 0.14026159 1.0219886 1.7026651e-38
-0.20655103 0.13806681 1.0187087 1.6473823e-38
-0.20980868 0.14008878 1.0144879 1.6196907e-38
-0.20818903 0.13830933 1.0159405 1.6196152e-38
-0.20837982 0.13848589 1.0157928 1.6196152e-38
-0.20672436 0.13928093 1.0202324 1.7404048e-38
-0.20849609 0.1407413 1.0189897 1.6006749e-38
-0.20977888 0.13909683 1.0127895 1.5550422e-38
-0.211031 0.14056315 1.0116017 1.5643381e-38
-0.20523971 0.14047705 1.0243671 1.8232034e-38
-0.20656198 0.1413904 1.0235653 1.6191505e-38
-0.20688213 0.14067072 1.021633 1.7026651e-38
-0.20823425 0.14186725 1.0206258 1.6288733e-38
-0.20970343 0.14121562 1.0161057 1.5457191e-38
-0.20835727 0.13958174 1.0174233 1.7209243e-38
-0.2084516 0.14021869 1.0182511 1.6006749e-38
-0.20838812 0.13961332 1.0173973 1.7209243e-38
-0.20995231 0.14030966 1.0143142 1.6196907e-38
-0.21084762 0.14168943 1.0132287 1.5829908e-38
-0.20853306 0.14076853 1.0189661 1.6006749e-38
-0.20986143 0.14234377 1.017692 1.5918854e-38
-0.20706744 0.14175074 1.0232508 1.6191505e-38
-0.20825551 0.14299473 1.022229 1.7853514e-38
-0.21266179 0.14376225 1.0091366 1.6479964e-38
-0.21151307 0.14142559 1.0109322 1.5925337e-38
-0.21184576 0.14216264 1.0103689 1.5925337e-38
-0.20868576 0.14221726 1.0203251 1.6288733e-38
-0.20989153 0.1434714 1.0192939 1.6012115e-38
-0.2117807 0.14441696 1.0135875 1.5834227e-38
-0.21011645 0.1416291 1.0157636 1.5457191e-38
-0.21106136 0.14281809 1.0148088 1.5918842e-38
-0.21272843 0.14488988 1.0107337 1.592356e-38
-0.21168 0.1427137 1.0124038 1.5088365e-38
-0.21179788 0.14434172 1.0134779 1.5834227e-38
-0.2120012 0.14329089 1.0119559 1.5088365e-38
-0.21177001 0.14554437 1.0151942 1.6013953e-38
-0.2102859 0.14288773 1.0172564 1.5918854e-38
-0.21100135 0.14394508 1.0164212 1.5363147e-38
-0.20884743 0.14356343 1.0217559 1.7853514e-38
-0.20982154 0.14459838 1.0209075 1.6762664e-38
-0.21377558 0.14695829 1.0067323 1.7122086e-38
-0.21315756 0.14476807 1.008363 1.7034941e-38
-0.21344514 0.14536148 1.0079075 1.7034941e-38
-0.21185006 0.14667217 1.0167898 1.5830637e-38
-0.21044761 0.14423358 1.0186872 1.6012115e-38
-0.2110036 0.14507252 1.0180261 1.5366384e-38
-0.21340626 0.14761601 1.0111227 1.7217519e-38
-0.21180683 0.14445305 1.0135586 1.5834227e-38
-0.21271385 0.14601709 1.0123408 1.5830268e-38
-0.21332842 0.14874288 1.0127373 1.6199051e-38
-0.21195434 0.14595939 1.0148771 1.6013953e-38
-0.2124753 0.14714316 1.0139744 1.5551881e-38
-0.21366248 0.14808503 1.008351 1.721393e-38
-0.21331589 0.14615314 1.0097666 1.7310433e-38
-0.21342292 0.14734074 1.0107286 1.7217519e-38
-0.21346779 0.14648893 1.0095099 1.7310433e-38
-0.21174467 0.14779894 1.0184073 1.6111551e-38
-0.21060443 0.14563502 1.0200795 1.5920676e-38
-0.21098262 0.14619982 1.019634 1.5920676e-38
-0.21356589 0.1514665 1.0131781 1.6936252e-38
-0.21326694 0.14986998 1.0143496 1.6756548e-38
-0.21210365 0.14744575 1.0162095 1.5830637e-38
-0.21236332 0.14826991 1.0155931 1.5367854e-38
-0.21344331 0.14788565 1.0109262 1.7217519e-38
-0.21368723 0.14921249 1.0099533 1.7123888e-38
-0.21374029 0.15259495 1.0147629 1.6564954e-38
-0.21317711 0.15099683 1.0159657 1.6108289e-38
-0.21221213 0.14939176 1.0172193 1.5273143e-38
-0.21221423 0.14939654 1.0172157 1.5273143e-38
-0.21357928 0.14952211 1.0121535 1.6199051e-38
-0.2136388 0.15116078 1.0127336 1.6936252e-38
-0.21382995 0.15034065 1.0115415 1.7215006e-38
-0.16346239 0.17417718 1.0075412 1.3790788e-38
-0.16334464 0.17258149 1.0086913 1.3881916e-38
-0.1633652 0.17098673 1.0098249 1.3699319e-38
-0.16331019 0.16939145 1.0109677 1.3607485e-38
-0.16322987 0.16779602 1.0121135 1.3974471e-38
-0.16324511 0.1662012 1.013248 1.4067389e-38
-0.16332644 0.16460672 1.0143747 1.4068108e-38
-0.16354108 0.16301298 1.0154855 1.4434372e-38
-0.16379316 0.16141935 1.016592 1.4801348e-38
-0.16421942 0.15982687 1.0176778 1.4801712e-38
-0.16481812 0.15823522 1.0187434 1.5352002e-38
-0.16347094 0.17530444 1.0091453 1.3791139e-38
-0.16332699 0.17370883 1.0102986 1.3882623e-38
-0.16338596 0.17211421 1.011428 1.3699317e-38
-0.16330378 0.17051886 1.0125738 1.41585e-38
-0.16325061 0.16892351 1.0137163 1.406667e-38
-0.16333324 0.16732909 1.0148429 1.4159224e-38
-0.16334715 0.16573423 1.0159773 1.4435087e-38
-0.16346423 0.16413999 1.0170999 1.4618395e-38
-0.16391641 0.16254736 1.0181825 1.4710589e-38
-0.16431369 0.16095477 1.0192717 1.4526569e-38
-0.16494757 0.15936339 1.0203332 1.4618762e-38
-0.16342673 0.17643169 1.0107558 1.3699307e-38
-0.16310084 0.17483492 1.0119307 1.3974463e-38
-0.16318533 0.17324041 1.0130568 1.3974829e-38
-0.1632148 0.17164569 1.0141896 1.3883352e-38
-0.16329737 0.17005114 1.015316 1.3975552e-38
-0.16328657 0.16845618 1.0164536 1.3975197e-38
-0.16331568 0.16686149 1.0175862 1.406775e-38
-0.16337097 0.1652668 1.0187161 1.4894258e-38
-0.16391526 0.16367489 1.0197879 1.4436166e-38
-0.16436526 0.16208234 1.0208713 1.4618753e-38
-0.16496155 0.16049086 1.0219368 1.4527288e-38
-0.16557616 0.15889931 1.0230005 1.4710596e-38
-0.16472656 0.17737409 1.0051192 1.351492e-38
-0.16365547 0.17495628 1.006964 1.3790788e-38
-0.16391546 0.17577465 1.006351 1.3699312e-38
-0.16521764 0.15732177 1.0193483 1.5627506e-38
-0.16554932 0.15664431 1.019793 1.5627506e-38
-0.1664203 0.15505424 1.0208263 1.764355e-38
-0.16350275 0.17755945 1.0123521 1.370003e-38
-0.16352224 0.17596464 1.0134859 1.3791142e-38
-0.16323794 0.17436819 1.0146559 1.3882988e-38
-0.16298629 0.17277175 1.0158221 1.3882995e-38
-0.16319309 0.17117792 1.0169338 1.3974833e-38
-0.16327381 0.16958351 1.0180606 1.3975196e-38
-0.16321222 0.1679882 1.019204 1.406739e-38
-0.16372487 0.16639608 1.0202796 1.4342535e-38
-0.16400567 0.16480272 1.0213827 1.4894263e-38
-0.16443598 0.16321009 1.022468 1.5260523e-38
-0.16492301 0.16161795 1.0235467 1.4435452e-38
-0.16542861 0.16002579 1.0246233 1.4619122e-38
-0.1645986 0.17850067 1.0067394 1.351492e-38
-0.16382435 0.17622165 1.0084515 1.3607473e-38
-0.16424713 0.17690381 1.0079173 1.3607473e-38
-0.1654246 0.15815656 1.0211385 1.5077212e-38
-0.16557655 0.15850551 1.0224397 1.4710596e-38
-0.16559336 0.15777199 1.0213932 1.5077212e-38
-0.1663599 0.15618129 1.0224388 1.5443835e-38
-0.16354237 0.17868707 1.0139526 1.3607837e-38
-0.16336508 0.17709115 1.0151101 1.3791864e-38
-0.16327442 0.17549571 1.0162568 1.3882988e-38
-0.16332519 0.17390102 1.017387 1.397483e-38
-0.16328724 0.17230584 1.0185279 1.397483e-38
-0.16339967 0.17071156 1.0196506 1.3975194e-38
-0.16344096 0.1691169 1.0207819 1.4067031e-38
-0.16360371 0.16752276 1.0218991 1.4251061e-38
-0.16393076 0.16592969 1.0229969 1.6269986e-38
-0.16440997 0.16433737 1.0240766 1.5169766e-38
-0.16500534 0.16274576 1.0251423 1.4710236e-38
-0.16560197 0.16115408 1.0262079 1.4710596e-38
-0.16476803 0.17962909 1.0083247 1.3515284e-38
-0.16396064 0.17785458 1.0096811 1.3607833e-38
-0.16405679 0.17803009 1.0095451 1.3607833e-38
-0.1656556 0.15872011 1.0231191 1.4710596e-38
-0.16637011 0.15730867 1.0240428 1.5902287e-38
-0.16531603 0.17811657 1.0045228 1.351492e-38
-0.16608968 0.1789767 1.0038217 1.3423086e-38
-0.16403192 0.17981711 1.0155003 1.3607484e-38
-0.16342959 0.17821896 1.0167077 1.3791865e-38
-0.16351092 0.17662433 1.0178342 1.3791505e-38
-0.16360836 0.17502995 1.0189588 1.3882988e-38
-0.16360813 0.17343502 1.0200952 1.3882995e-38
-0.16350585 0.17183942 1.0212436 1.3975192e-38
-0.16362897 0.17081784 1.0231805 1.3975194e-38
-0.16362296 0.17024522 1.0223659 1.3975196e-38
-0.16372703 0.16895464 1.0239227 1.4067391e-38
-0.16377288 0.16865106 1.0234843 1.4067391e-38
-0.16394359 0.16783015 1.0257014 1.4526565e-38
-0.16395675 0.16705719 1.0245991 1.4893545e-38
-0.16443667 0.16546488 1.0256785 1.507865e-38
-0.16507217 0.16387345 1.0267395 1.5534233e-38
-0.16562589 0.1622816 1.0278105 1.5260524e-38
-0.16464388 0.18075566 1.0099447 1.3515641e-38
-0.16412874 0.17912816 1.0111631 1.3607484e-38
-0.16414426 0.17915793 1.01114 1.3607484e-38
-0.16588227 0.15933309 1.0250648 1.4619122e-38
-0.16647099 0.15843664 1.0256361 1.5444911e-38
-0.16546161 0.17964476 1.0058258 1.3331252e-38
-0.16586271 0.18010265 1.0054539 1.3331252e-38
-0.16488771 0.18188439 1.0115213 1.3515997e-38
-0.1643227 0.18010929 1.0128503 1.3607836e-38
-0.16441029 0.18028685 1.0127138 1.3607836e-38
-0.16606504 0.16044147 1.0266627 1.4710596e-38
-0.16659871 0.1595647 1.0272263 1.498646e-38
-0.16565096 0.1806784 1.0074763 1.3239416e-38
-0.16602316 0.18123092 1.0070403 1.3239416e-38
-0.16708724 0.18002833 1.0029581 1.3238696e-38
-0.16758622 0.18057986 1.0025085 1.3238696e-38
-0.16582432 0.18189275 1.0089996 1.3331254e-38
-0.16630511 0.18235993 1.008612 1.3331254e-38
-0.1648089 0.18301138 1.0131358 1.3515283e-38
-0.16450943 0.18117444 1.0144784 1.3515644e-38
-0.1645292 0.18167081 1.0146697 1.3515644e-38
-0.16459858 0.1814153 1.014297 1.3515644e-38
-0.16628078 0.16117705 1.0285226 1.4619122e-38
-0.16657026 0.16069192 1.0288351 1.4619122e-38
-0.16725126 0.18134759 1.0044082 1.3146502e-38
-0.16754909 0.18170699 1.0041181 1.3146502e-38
-0.16602542 0.18279435 1.010743 1.3239422e-38
-0.16652945 0.1834885 1.0101908 1.3239422e-38
-0.16743182 0.18248151 1.0059882 1.305431e-38
-0.16780521 0.18283576 1.0056932 1.305431e-38
-0.16888432 0.18164818 1.0015991 1.3146502e-38
-0.16952327 0.18218561 1.0011431 1.3146502e-38
-0.16758762 0.1838939 1.0073726 1.305431e-38
-0.16763523 0.1839622 1.0073187 1.305431e-38
-0.16905338 0.18291114 1.0030885 1.3146146e-38
-0.16970174 0.18331392 1.0027274 1.3146146e-38
-0.16791463 0.1862185 1.010496 1.3146509e-38
-0.16617468 0.18428126 1.0120749 1.3239419e-38
-0.16632275 0.18572037 1.013395 1.3239059e-38
-0.16648366 0.18461573 1.0118016 1.3239419e-38
-0.16949724 0.18669495 1.0075675 1.323798e-38
-0.16777787 0.18491784 1.0090297 1.3146507e-38
-0.1679129 0.1860276 1.0102245 1.3146509e-38
-0.1679156 0.18509123 1.0088906 1.3146507e-38
-0.16921915 0.18421128 1.0045518 1.3146147e-38
-0.16952991 0.18444028 1.004353 1.3146147e-38
-0.17072193 0.18280917 1.0005617 1.3330171e-38
-0.16940066 0.18533371 1.0061399 1.3146144e-38
-0.16952823 0.18649143 1.0072738 1.323798e-38
-0.16973044 0.18556876 1.0059346 1.3146144e-38
-0.17090657 0.18389684 1.0021746 1.323798e-38
-0.1679419 0.18623801 1.0104789 1.3146509e-38
-0.16955757 0.18673402 1.0075327 1.323798e-38
-0.1696431 0.18720737 1.0082786 1.323798e-38
-0.17258371 0.18369906 0.99971533 1.3329815e-38
-0.17279446 0.18379858 0.99962008 1.3329815e-38
-0.17107375 0.18518049 1.0036492 1.323798e-38
-0.17282179 0.18605354 1.0028276 1.323798e-38
-0.17124493 0.18642035 1.0051548 1.3146503e-38
-0.17292833 0.18718162 1.0044203 1.3145784e-38
-0.1727571 0.18491343 1.0012387 1.323762e-38
-0.17278993 0.18513754 1.0015273 1.323762e-38
-0.17278323 0.18492596 1.0012268 1.323762e-38
-0.16974817 0.18775384 1.0091926 1.3054309e-38
-0.16983961 0.18782422 1.0091323 1.3054309e-38
-0.17444739 0.18456693 0.9988839 1.3329815e-38
-0.17141922 0.18762405 1.0066859 1.3145067e-38
-0.17309104 0.18830973 1.0060064 1.3145784e-38
-0.17293233 0.18610612 1.0027776 1.323798e-38
-0.17311227 0.18724635 1.0043529 1.3145784e-38
-0.17462872 0.18569054 1.0004714 1.3329814e-38
-0.171602 0.18873233 1.0082841 1.3145067e-38
-0.17320827 0.18943784 1.0075978 1.3145067e-38
-0.17633876 0.18512161 0.99827266 1.3238341e-38
-0.17728126 0.18541855 0.99795341 1.3238341e-38
-0.17480868 0.18683071 1.0020468 1.323798e-38
-0.17329331 0.18837513 1.0059365 1.3145784e-38
-0.17499998 0.18784276 1.0037124 1.3237618e-38
-0.17651443 0.18630961 0.99981463 1.3146864e-38
-0.17753972 0.18654735 0.99952811 1.3329824e-38
-0.16742979 0.15346485 1.0218433 1.8103449e-38
-0.17347164 0.18953337 1.0074997 1.3145067e-38
-0.17516911 0.18910515 1.0052022 1.3146143e-38
-0.17822431 0.18574244 0.99761486 1.3421656e-38
-0.17670183 0.18736547 1.0014496 1.31465e-38
-0.17782392 0.18767628 1.0010998 1.3238347e-38
-0.16717993 0.15459087 1.0234783 1.8011971e-38
-0.17688712 0.18844531 1.0030676 1.3055021e-38
-0.17802507 0.18880485 1.0026814 1.3146509e-38
-0.16729572 0.15571885 1.0250697 1.6727717e-38
-0.17841236 0.18679051 0.9992553 1.3329824e-38
-0.16751207 0.15332609 1.0219328 1.8103449e-38
-0.16829725 0.15187465 1.022877 1.7736823e-38
-0.16934618 0.15028559 1.0238893 1.8287835e-38
-0.17535448 0.1901843 1.0068207 1.3053943e-38
-0.18012522 0.18619086 0.99707824 1.3331261e-38
-0.1770637 0.18962313 1.0046167 1.3055018e-38
-0.17815843 0.18993285 1.0042709 1.3055385e-38
-0.1673934 0.15684685 1.0266635 1.581081e-38
-0.17858981 0.1879589 1.0008111 1.3238347e-38
-0.16775733 0.15372993 1.0240256 1.8012686e-38
-0.16831625 0.15300232 1.0244799 1.8012686e-38
-0.16937774 0.1514132 1.0254905 1.8288552e-38
-0.17877269 0.18906629 1.0024097 1.3146509e-38
-0.16740583 0.15797417 1.0282673 1.6636248e-38
-0.16795842 0.15463132 1.0257686 1.7736457e-38
-0.16826628 0.1541294 1.0260911 1.7736457e-38
-0.16933307 0.15254036 1.0271012 1.8105239e-38
-0.18031083 0.18726572 0.99869978 1.3331261e-38
-0.16977288 0.14971159 1.0242493 1.8287835e-38
-0.17063303 0.14869779 1.0248731 1.7828655e-38
-0.17724654 0.19073147 1.0062146 1.2963179e-38
-0.17831624 0.1910612 1.0058576 1.2963549e-38
-0.16751859 0.1591022 1.0298593 1.6727364e-38
-0.18203278 0.18656257 0.99659556 1.3331979e-38
-0.17895332 0.19019851 1.0039908 1.3055385e-38
-0.18048681 0.1884505 1.0002441 1.33309e-38
-0.16815275 0.15560898 1.0274584 1.691282e-38
-0.16835378 0.15525725 1.0276861 1.691282e-38
-0.16953596 0.1536689 1.0286825 1.8197081e-38
-0.16998768 0.15045787 1.0261016 1.7827934e-38
-0.17065009 0.1498253 1.0264765 1.7827934e-38
-0.18067585 0.18948904 1.001891 1.3239423e-38
-0.168347 0.156587 1.0291482 1.6178509e-38
-0.1684971 0.15638532 1.0292746 1.6178509e-38
-0.16968305 0.15479699 1.0302706 1.8196366e-38
-0.17017984 0.15146044 1.0277737 1.7003948e-38
-0.17060168 0.1509524 1.0280875 1.7003948e-38
-0.17225762 0.14936674 1.0290279 1.8197801e-38
-0.17191494 0.14743666 1.0256252 1.828891e-38
-0.17233457 0.1471123 1.0258083 1.828891e-38
-0.1737995 0.1455255 1.0267713 1.8106688e-38
-0.18223418 0.18746024 0.99834168 1.3331977e-38
-0.17913446 0.19132495 1.005576 1.2963549e-38
-0.16854425 0.15753266 1.0308602 1.5903361e-38
-0.16855839 0.15759088 1.0309832 1.5903361e-38
-0.168558 0.15751299 1.0308725 1.5903361e-38
-0.16976 0.15592475 1.0318668 1.8105243e-38
-0.18400133 0.18624556 0.99659634 1.3424532e-38
-0.18585581 0.18546619 0.99693966 1.3333422e-38
-0.18241124 0.18863262 0.9998945 1.3331977e-38
-0.18085338 0.19065644 1.0034475 1.3239422e-38
-0.17035908 0.15260883 1.0293435 1.8105244e-38
-0.17084371 0.15208115 1.0296644 1.8105244e-38
-0.17243844 0.15049505 1.0306121 1.8106334e-38
-0.17211206 0.14838357 1.0273367 1.8197434e-38
-0.17224765 0.14900456 1.0285138 1.8197801e-38
-0.17223138 0.14823909 1.0274259 1.8197434e-38
-0.17376642 0.14665283 1.0283805 1.8106326e-38
-0.17057182 0.15337804 1.0311798 1.819853e-38
-0.17069472 0.15320767 1.0312873 1.819853e-38
-0.17243902 0.15162244 1.0322173 1.8199242e-38
-0.18259938 0.18968005 1.0015352 1.3240142e-38
-0.17230994 0.14932074 1.0290549 1.8197801e-38
-0.17405406 0.14778177 1.0299517 1.8198523e-38
-0.17404176 0.14533404 1.0268803 1.8106688e-38
-0.18418971 0.18729044 0.99823904 1.3424177e-38
-0.18585418 0.18659367 0.99854511 1.3333421e-38
-0.18103768 0.19174701 1.0050579 1.3239422e-38
-0.18601857 0.18537973 0.99698257 1.3333422e-38
-0.1843801 0.18831272 0.99989712 1.3332693e-38
-0.1852832 0.18771769 1.0002178 1.3332693e-38
-0.17249161 0.15044177 1.0306438 1.8106334e-38
-0.17397256 0.14890869 1.0315669 1.8107406e-38
-0.18279842 0.19060488 1.003262 1.333162e-38
-0.18469591 0.18996921 1.0034981 1.3333047e-38
-0.17075951 0.15443149 1.0328163 1.8106326e-38
-0.17084347 0.15480579 1.0335439 1.8106326e-38
-0.17083186 0.15433577 1.0328763 1.8106326e-38
-0.17245831 0.15274985 1.0338202 1.8290357e-38
-0.17424154 0.14625059 1.0286131 1.8106326e-38
-0.17609823 0.14507078 1.0292412 1.8013053e-38
-0.17269471 0.15132 1.0324033 1.8199242e-38
-0.17400731 0.1500362 1.0331682 1.8291433e-38
-0.18458782 0.18913898 1.0016934 1.3332692e-38
-0.18477239 0.18982755 1.0032866 1.3333047e-38
-0.18503137 0.18884377 1.001853 1.3332692e-38
-0.18620856 0.18640716 0.99863762 1.3333421e-38
-0.17442241 0.14737944 1.0301962 1.8198523e-38
-0.17579611 0.14619645 1.030882 1.7736469e-38
-0.1760976 0.1440327 1.0275722 1.8015209e-38
-0.17618285 0.14442632 1.0283128 1.8015209e-38
-0.17623653 0.14394416 1.0276194 1.8015209e-38
-0.18807505 0.18407184 0.99767953 1.3333417e-38
-0.18860689 0.18388657 0.99775094 1.3333417e-38
-0.18296626 0.19188179 1.0047413 1.3331977e-38
-0.18454622 0.19109578 1.0051211 1.3333047e-38
-0.17462163 0.14830199 1.0319248 1.8107406e-38
-0.17581014 0.14732391 1.032486 1.7829745e-38
-0.18643698 0.18699913 1.0005982 1.3149739e-38
-0.18823254 0.18613918 1.0010055 1.3241591e-38
-0.18479803 0.1899378 1.0035088 1.3333047e-38
-0.17629899 0.14493065 1.0293182 1.8013053e-38
-0.17826104 0.14348775 1.0301219 1.8109922e-38
-0.17288998 0.15228741 1.0341003 1.8290357e-38
-0.17415984 0.15116441 1.0347552 1.8291082e-38
-0.1748047 0.1494067 1.0335252 1.8291433e-38
-0.17592123 0.14845192 1.0340779 1.7737901e-38
-0.17651328 0.14568245 1.0311664 1.7736469e-38
-0.17831089 0.14461547 1.0317214 1.78319e-38
-0.18662982 0.18799371 1.0022759 1.3333419e-38
-0.18826272 0.18726669 1.0026073 1.3241941e-38
-0.1882578 0.18518025 0.99927735 1.3241584e-38
-0.18840027 0.18580772 1.0005127 1.3241591e-38
-0.18865463 0.18501423 0.99935043 1.3241584e-38
-0.17814805 0.14279167 1.0282222 1.8110643e-38
-0.17834282 0.1433363 1.0298955 1.8109922e-38
-0.17886791 0.14236382 1.0284446 1.8110643e-38
-0.19005869 0.18358506 0.99779958 1.3149746e-38
-0.18499622 0.1908724 1.0052288 1.3333047e-38
-0.185157 0.19222535 1.0066524 1.3424885e-38
-0.18845804 0.18609118 1.001014 1.3241591e-38
-0.17670177 0.1467268 1.0328094 1.7829745e-38
-0.17806353 0.14574145 1.0333557 1.7831188e-38
-0.1868078 0.1891561 1.0038359 1.3241573e-38
-0.18835825 0.18839471 1.0042013 1.314974e-38
-0.17837417 0.14341031 1.030164 1.8109922e-38
-0.17500247 0.15034594 1.035242 1.80152e-38
-0.17600672 0.14957967 1.0356731 1.80152e-38
-0.17689134 0.14775775 1.0344617 1.7737901e-38
-0.17819135 0.14686956 1.0349456 1.7462393e-38
-0.17856021 0.14448147 1.0317883 1.78319e-38
-0.18864171 0.18718904 1.0026193 1.3241941e-38
-0.19024898 0.184608 0.99945742 1.3149748e-38
-0.1920419 0.1831025 0.99791664 1.3149744e-38
-0.18021694 0.1413424 1.0290182 1.8384344e-38
-0.1813436 0.14078265 1.0292881 1.8019524e-38
-0.18699625 0.19020079 1.0054787 1.3241574e-38
-0.18886566 0.1895248 1.0057465 1.3057903e-38
-0.19043797 0.18564658 1.0011046 1.296608e-38
-0.17877436 0.14523648 1.0336342 1.7831188e-38
-0.18882583 0.18828218 1.004228 1.314974e-38
-0.18040264 0.14241776 1.0306395 1.8388312e-38
-0.18134016 0.14190999 1.0308939 1.8388312e-38
-0.1770709 0.1489027 1.0360337 1.7646418e-38
-0.17821699 0.14799716 1.0365481 1.755387e-38
-0.19062793 0.18667242 1.0027605 1.3058272e-38
-0.19223121 0.18413794 0.99956602 1.3149746e-38
-0.18060152 0.14334387 1.0323653 1.8018455e-38
-0.18130584 0.14303727 1.0325034 1.8018455e-38
-0.17895028 0.14642154 1.0351783 1.7462393e-38
-0.19402687 0.18260086 0.99804735 1.305827e-38
-0.19481136 0.18232609 0.99815345 1.305827e-38
-0.18223183 0.14050327 1.0293858 1.8019524e-38
-0.18899928 0.18949562 1.0057521 1.3057903e-38
-0.192426 0.18510956 1.0012599 1.2966435e-38
-0.1943066 0.184578 1.0014238 1.305791e-38
-0.18078551 0.14443807 1.0339731 1.801702e-38
-0.18144812 0.14416534 1.0340916 1.801702e-38
-0.19081032 0.18778516 1.0043553 1.2874599e-38
-0.18243095 0.14142694 1.0311135 1.8019167e-38
-0.19260509 0.18625903 1.0028291 1.2966437e-38
-0.1791313 0.1475493 1.0367627 1.755387e-38
-0.18260451 0.14263959 1.0326383 1.8017386e-38
-0.19422355 0.18355314 0.99975479 1.3058269e-38
-0.19437255 0.18432276 1.001052 1.305791e-38
-0.19448198 0.18345168 0.99979758 1.3058269e-38
-0.1809646 0.14558876 1.0355414 1.7557102e-38
-0.18178022 0.14529449 1.0356578 1.7557102e-38
-0.19603148 0.18187888 0.99833256 1.2966079e-38
-0.19099024 0.18892607 1.0059304 1.2874592e-38
-0.18420815 0.14009959 1.0294474 1.8019162e-38
-0.19441625 0.18454878 1.0014322 1.305791e-38
-0.1945044 0.18514487 1.002206 1.3058267e-38
-0.1827902 0.14371438 1.0342597 1.7740432e-38
-0.19278477 0.18740281 1.004402 1.2874246e-38
-0.19460019 0.18683442 1.0045997 1.2966792e-38
-0.18441507 0.14093545 1.0312369 1.783191e-38
-0.19459186 0.1857378 1.0029734 1.3058267e-38
-0.19465181 0.18606371 1.0034956 1.3058267e-38
-0.19467092 0.18570739 1.002986 1.3058267e-38
-0.18458177 0.14222431 1.032708 1.7924096e-38
-0.18113494 0.14683662 1.0370414 1.8017009e-38
-0.1830682 0.14642912 1.0371107 1.7924816e-38
-0.19623151 0.18279181 1.0000678 1.2965716e-38
-0.18296379 0.14492665 1.0357845 1.7836565e-38
-0.19804555 0.18104756 0.99869472 1.2966073e-38
-0.19876404 0.18075302 0.99882245 1.2966073e-38
-0.19297314 0.188448 1.0060441 1.2874246e-38
-0.19445787 0.187961 1.0062218 1.2966796e-38
-0.18618491 0.13969024 1.0295132 1.7742954e-38
-0.18475869 0.14339906 1.0342594 1.7834422e-38
-0.19478159 0.18676758 1.0046266 1.2966792e-38
-0.19642358 0.18379487 1.0017397 1.2965714e-38
-0.19660731 0.18489216 1.0033455 1.2965716e-38
-0.19840364 0.18413323 1.0036807 1.2965353e-38
-0.18636557 0.1408228 1.0310942 1.7466011e-38
-0.18653052 0.14213201 1.0325512 1.7558205e-38
-0.19823621 0.18206723 1.0003549 1.2966792e-38
-0.19875002 0.18188046 1.0004293 1.2966792e-38
-0.18311252 0.14641853 1.0371133 1.7924816e-38
-0.18494147 0.14450803 1.0358568 1.7648592e-38
-0.20006907 0.18011127 0.99913031 1.3052528e-38
-0.19497332 0.18777509 1.0062952 1.2966796e-38
-0.18813321 0.13960321 1.0293524 1.7650761e-38
-0.18671454 0.14322719 1.0341582 1.7649676e-38
-0.19679374 0.18595915 1.0049725 1.2965714e-38
-0.19860245 0.18526164 1.0052626 1.2873163e-38
-0.19842817 0.18307137 1.002026 1.2966077e-38
-0.19850749 0.18346402 1.0027149 1.2966077e-38
-0.19856073 0.18300667 1.0020568 1.2966077e-38
-0.19862396 0.1840333 1.0037268 1.2965353e-38
-0.18834196 0.14041825 1.0311567 1.746637e-38
-0.18878101 0.14035651 1.0311506 1.746637e-38
-0.18850397 0.14175975 1.032591 1.7650401e-38
-0.18966226 0.14148876 1.0326517 1.7651476e-38
-0.20025413 0.18119384 1.0007465 1.3145448e-38
-0.20183247 0.18030266 1.0012012 1.4341825e-38
-0.18511039 0.14577216 1.0373454 1.7836576e-38
-0.18689114 0.14440461 1.035708 1.7555669e-38
-0.20209168 0.17918433 0.99955964 1.3882281e-38
-0.20209751 0.17920834 0.99960959 1.3882281e-38
-0.20210728 0.17917673 0.99956328 1.3882281e-38
-0.19697784 0.1870531 1.0065807 1.2966426e-38
-0.19854179 0.1863887 1.0068752 1.2965354e-38
-0.18868314 0.14290935 1.0341598 1.7650753e-38
-0.19010314 0.13927156 1.0293639 1.7466012e-38
-0.19012867 0.13937658 1.0295855 1.7466012e-38
-0.19880319 0.18518122 1.0052972 1.2873163e-38
-0.20046087 0.1820313 1.0025347 1.3057191e-38
-0.20197852 0.18143073 1.0027891 1.370257e-38
-0.20064586 0.18311532 1.0041498 1.3147234e-38
-0.20185384 0.18255743 1.0044092 1.3982033e-38
-0.19030584 0.14015506 1.0311197 1.7651118e-38
-0.19150898 0.14037153 1.030828 1.755892e-38
-0.20230466 0.17995223 1.0013968 1.4341825e-38
-0.19048445 0.14130938 1.0326855 1.7651476e-38
-0.19054842 0.14199331 1.0332586 1.7651476e-38
-0.19215067 0.14150247 1.0323575 1.7929146e-38
-0.18707389 0.145512 1.0373065 1.7648946e-38
-0.1888555 0.14413519 1.0356752 1.8020976e-38
-0.19899708 0.18616411 1.0069832 1.2965354e-38
-0.20414127 0.17795414 1.0002018 1.453882e-38
-0.20466033 0.17759585 1.0003977 1.453882e-38
-0.19062307 0.14291632 1.033933 1.7928426e-38
-0.19203185 0.13940567 1.0290478 1.7559279e-38
-0.20083387 0.18416388 1.0057896 1.3149028e-38
-0.20168065 0.18368383 1.0060351 1.3149028e-38
-0.20247693 0.18117847 1.0029119 1.370257e-38
-0.20268126 0.18204419 1.0046803 1.3982033e-38
-0.19220601 0.14061151 1.0305774 1.755892e-38
-0.20434131 0.17886765 1.0019368 1.4814317e-38
-0.20452747 0.17872265 1.0020187 1.4814317e-38
-0.19240424 0.1415439 1.0322989 1.7929146e-38
-0.1890142 0.14551534 1.0370823 1.7836942e-38
-0.19079784 0.14411499 1.0354677 1.7836227e-38
-0.20103061 0.18511491 1.0074985 1.3238344e-38
-0.20158854 0.18481074 1.0076512 1.3238344e-38
-0.20622773 0.17630684 1.001137 1.592678e-38
-0.20651348 0.17601135 1.001315 1.592678e-38
-0.20764954 0.17442267 1.002317 1.8056614e-38
-0.19255976 0.14296015 1.0336809 1.783623e-38
-0.19397616 0.13936202 1.0288566 1.7742594e-38
-0.20288339 0.18293345 1.0064321 1.3610024e-38
-0.20457557 0.18210495 1.006829 1.6012853e-38
-0.20452978 0.17991126 1.0035802 1.509163e-38
-0.20461462 0.17985046 1.0036138 1.509163e-38
-0.20649756 0.17826606 1.0045273 1.87949e-38
-0.2062505 0.17939195 1.006162 1.8516153e-38
-0.19411713 0.14094254 1.0301234 1.756e-38
-0.20643499 0.17713882 1.0029291 1.8059168e-38
-0.20643617 0.17714502 1.0029391 1.8059168e-38
-0.20643565 0.1771383 1.0029296 1.8059168e-38
-0.20778225 0.17555083 1.0039064 1.7315837e-38
-0.19432746 0.14173889 1.0319403 1.7834433e-38
-0.19097269 0.14531276 1.0370028 1.7653269e-38
-0.1927318 0.14418946 1.0351936 1.7745466e-38
-0.1958473 0.14014615 1.0280844 1.7651474e-38
-0.208434 0.17330725 1.003022 1.777715e-38
-0.20885096 0.1728344 1.0033112 1.777715e-38
-0.20973869 0.17124447 1.0043423 1.6849454e-38
-0.19444562 0.14357729 1.0330256 1.728125e-38
-0.20307729 0.18391606 1.0081185 1.333236e-38
-0.20434287 0.18323109 1.0084618 1.5369265e-38
-0.20662856 0.1781244 1.0046133 1.87949e-38
-0.20766668 0.1766775 1.0055255 1.5832417e-38
-0.20491749 0.18187726 1.0069522 1.6012853e-38
-0.20629507 0.18051964 1.007762 1.6851247e-38
-0.20685512 0.1787397 1.0065576 1.8516153e-38
-0.20777495 0.17780553 1.007118 1.5927874e-38
-0.19604716 0.14106148 1.0298181 1.7927708e-38
-0.1962193 0.14228962 1.0313318 1.7834439e-38
-0.19290422 0.14541529 1.0367091 1.746744e-38
-0.20863409 0.17421944 1.0047575 1.7408014e-38
-0.20881222 0.17396151 1.004921 1.7408014e-38
-0.20991948 0.17237285 1.0059263 1.8332501e-38
-0.21048014 0.17078088 1.0069964 1.6943806e-38
-0.19466226 0.14430308 1.0348923 1.7652906e-38
-0.19776732 0.14037803 1.0276997 1.7466363e-38
-0.19634441 0.14404896 1.0324726 1.755784e-38
-0.21068433 0.16981055 1.0052558 1.8427212e-38
-0.21072793 0.16984111 1.0056269 1.8427212e-38
-0.21077576 0.16965525 1.005356 1.8427212e-38
-0.21171962 0.16806558 1.0063807 1.6385938e-38
-0.21235441 0.16647407 1.0074419 1.7403334e-38
-0.21295598 0.16488242 1.0085071 1.8704521e-38
-0.20512496 0.18270776 1.0087454 1.5369265e-38
-0.20614944 0.18164606 1.0093843 1.4805681e-38
-0.20706008 0.1795972 1.0083318 1.7683159e-38
-0.20765702 0.17893223 1.0087373 1.7683159e-38
-0.2088356 0.17734377 1.009734 1.7690732e-38
-0.20881669 0.17532979 1.0063543 1.7039599e-38
-0.20903425 0.17509021 1.0065001 1.7039599e-38
