# .PCD v0.7 - Point Cloud Data file format
VERSION 0.7
FIELDS x y z rgb
SIZE 4 4 4 4
TYPE F F F F
COUNT 1 1 1 1
WIDTH 978
HEIGHT 1
VIEWPOINT 0 0 0 1 0 0 0
POINTS 978
DATA ascii
-0.11804361 0.22536096 0.30936897 1.0063367e-38
-0.11490421 0.23306108 0.30957079 1.0063367e-38
-0.18111648 0.19911624 0.3198117 1.0063367e-38
-0.16964786 0.19878812 0.3198027 1.0063367e-38
-0.11565211 0.19820186 0.31874615 1.0063367e-38
-0.19421774 0.2071996 0.31925073 1.0063367e-38
-0.18495785 0.20500347 0.31813139 1.0063367e-38
-0.17472671 0.20499802 0.31739423 1.0063367e-38
-0.16536605 0.20554608 0.31795993 1.0063367e-38
-0.15637571 0.20563176 0.31880134 1.0063367e-38
-0.12122999 0.20752884 0.31728664 1.0063367e-38
-0.11586538 0.20509344 0.31583038 1.0063367e-38
-0.2033262 0.21668647 0.31872094 1.0063367e-38
-0.19524434 0.21534672 0.31703216 1.0063367e-38
-0.185324 0.2150975 0.31505662 1.0063367e-38
-0.17397965 0.21620512 0.31554225 1.0063367e-38
-0.16469994 0.21601982 0.31669754 1.0063367e-38
-0.15477902 0.21607052 0.31767726 1.0063367e-38
-0.14619513 0.21530974 0.31812859 1.0063367e-38
-0.1350829 0.21621759 0.31947806 1.0063367e-38
-0.12421887 0.2155786 0.31543756 1.0063367e-38
-0.11532193 0.21448235 0.31452844 1.0063367e-38
-0.10956549 0.21869488 0.3167482 1.0063367e-38
-0.21019283 0.22681852 0.31914365 1.0063367e-38
-0.20468989 0.224071 0.31761813 1.0063367e-38
-0.19463962 0.22540152 0.31479251 1.0063367e-38
-0.18489914 0.22515275 0.31392297 1.0063367e-38
-0.17475991 0.2251986 0.31514812 1.0063367e-38
-0.16474369 0.22567119 0.31564033 1.0063367e-38
-0.15611012 0.224851 0.31588888 1.0063367e-38
-0.14541526 0.22543469 0.31722936 1.0063367e-38
-0.13491239 0.2264282 0.31802112 1.0063367e-38
-0.12491497 0.22520776 0.31517017 1.0063367e-38
-0.11491305 0.22483674 0.31509584 1.0063367e-38
-0.10561763 0.22610846 0.3184714 1.0063367e-38
-0.21187934 0.23555386 0.31913525 1.0063367e-38
-0.20470648 0.235457 0.31630552 1.0063367e-38
-0.19489092 0.2350814 0.31381032 1.0063367e-38
-0.18374303 0.23522867 0.31463745 1.0063367e-38
-0.17478633 0.23532018 0.31475061 1.0063367e-38
-0.16551034 0.23441973 0.31467596 1.0063367e-38
-0.15533637 0.23530526 0.3147347 1.0063367e-38
-0.14456987 0.23529445 0.31681362 1.0063367e-38
-0.135502 0.23488961 0.31830588 1.0063367e-38
-0.12393798 0.23555365 0.31702104 1.0063367e-38
-0.11453743 0.2356213 0.31503242 1.0063367e-38
-0.10490983 0.2360028 0.31765708 1.0063367e-38
-0.21249565 0.24306089 0.31916854 1.0063367e-38
-0.20465848 0.24666813 0.31624508 1.0063367e-38
-0.1960277 0.24521801 0.31383213 1.0063367e-38
-0.18429941 0.24438936 0.31522694 1.0063367e-38
-0.17525022 0.24553645 0.31477553 1.0063367e-38
-0.16461892 0.24456549 0.31346124 1.0063367e-38
-0.15366802 0.2453392 0.31498152 1.0063367e-38
-0.14507592 0.24519742 0.31562898 1.0063367e-38
-0.13630834 0.2447183 0.31824502 1.0063367e-38
-0.12642568 0.2428555 0.31874824 9.971532e-39
-0.1150139 0.24453665 0.31644508 1.0063367e-38
-0.10574386 0.24595684 0.314879 1.0063367e-38
-0.099441513 0.24638376 0.31918675 1.0063367e-38
-0.21242496 0.25247097 0.31958967 1.0063367e-38
-0.20616364 0.25602502 0.3177205 1.0063367e-38
-0.19463822 0.25337827 0.31410921 9.971532e-39
-0.18356526 0.25388229 0.31330928 1.0063367e-38
-0.17418778 0.25559193 0.31486678 1.0063367e-38
-0.16476993 0.25516763 0.31489536 1.0063367e-38
-0.15515691 0.25486785 0.31559849 1.0063367e-38
-0.14485772 0.25406247 0.31695718 1.0063367e-38
-0.13650456 0.25448862 0.31842786 1.0063367e-38
-0.12997587 0.25466537 0.31996107 1.0063367e-38
-0.10266548 0.25134951 0.31677222 1.0063367e-38
-0.098230824 0.25294679 0.31946701 1.0063367e-38
-0.20378809 0.26375943 0.31835964 1.0063367e-38
-0.19472946 0.26453131 0.31591195 1.0063367e-38
-0.18536316 0.26503348 0.31447408 1.0063367e-38
-0.17457373 0.26383337 0.31420839 1.0063367e-38
-0.16465585 0.26547441 0.31529388 1.0063367e-38
-0.1543711 0.26456147 0.31653988 1.0063367e-38
-0.1443443 0.26544836 0.31772399 1.0063367e-38
-0.13532341 0.26352027 0.31973645 1.0063367e-38
-0.20212913 0.27090335 0.31973976 1.0063367e-38
-0.19502753 0.27390575 0.31848377 1.0063367e-38
-0.18361348 0.2754361 0.31710923 1.0063367e-38
-0.17470726 0.27566838 0.3164725 1.0063367e-38
-0.16441259 0.27592319 0.31681311 1.0063367e-38
-0.15463173 0.27582633 0.31779146 1.0063367e-38
-0.14498983 0.27302712 0.31958595 1.0063367e-38
-0.18529469 0.28219438 0.31966126 1.0063367e-38
-0.17509624 0.2823444 0.31894463 1.0063367e-38
-0.16477785 0.28255686 0.31893611 1.0063367e-38
-0.15901579 0.28251722 0.31931573 1.0063367e-38
-0.19455968 0.18698195 0.32876503 1.0063367e-38
-0.18431793 0.18554284 0.32748204 1.0063367e-38
-0.17518644 0.18489853 0.32680523 1.0063367e-38
-0.16658634 0.18487798 0.32692903 1.0063367e-38
-0.15631005 0.18646979 0.32794043 1.0063367e-38
-0.14490287 0.18931016 0.32932079 1.0063367e-38
-0.10790692 0.18812889 0.32855472 1.0063367e-38
-0.21063116 0.19555232 0.32978332 1.0063367e-38
-0.204861 0.19659622 0.32665578 1.0063367e-38
-0.19508152 0.19506361 0.3245329 1.0063367e-38
-0.18561117 0.19582075 0.32460576 1.0063367e-38
-0.17546664 0.19483383 0.32493678 1.0063367e-38
-0.16428831 0.19498245 0.32485333 1.0063367e-38
-0.15495712 0.19558389 0.32502079 1.0063367e-38
-0.14585938 0.19647156 0.32599488 9.971532e-39
-0.13392814 0.19568655 0.32881629 1.0063367e-38
-0.12357289 0.19729793 0.32724944 1.0063367e-38
-0.11380801 0.19567761 0.32411456 1.0063367e-38
-0.10585599 0.19494125 0.32684374 1.0063367e-38
-0.21510179 0.20428231 0.32773626 1.0063367e-38
-0.20593417 0.20508216 0.32330459 1.0063367e-38
-0.19425789 0.20469809 0.32640022 1.0063367e-38
-0.18487468 0.20490074 0.32671049 1.0063367e-38
-0.1752398 0.20456438 0.32447359 1.0063367e-38
-0.1654733 0.20576683 0.32207355 1.0063367e-38
-0.15437856 0.20399559 0.32348847 1.0063367e-38
-0.14413376 0.20494106 0.3232697 1.0063367e-38
-0.13484153 0.20501718 0.32468715 1.0063367e-38
-0.12474511 0.20421767 0.32496467 1.0063367e-38
-0.11627346 0.20467578 0.32507792 1.0063367e-38
-0.10604509 0.20473129 0.32544076 1.0063367e-38
-0.098117381 0.20900333 0.32885954 1.0063367e-38
-0.22046 0.21873125 0.325257 1.0063367e-38
-0.21542655 0.21413568 0.32490295 1.0063367e-38
-0.20408455 0.21417356 0.32391644 1.0063367e-38
-0.19492117 0.21621308 0.3259455 1.0063367e-38
-0.18539596 0.21371441 0.32371113 1.0063367e-38
-0.17675821 0.21388796 0.32145524 1.0063367e-38
-0.16529149 0.21141079 0.32106423 1.0063367e-38
-0.15557137 0.21017323 0.32154632 1.0063367e-38
-0.14477883 0.21490374 0.32080722 1.0063367e-38
-0.13498035 0.21314108 0.32208383 1.0063367e-38
-0.1252712 0.21493015 0.32254311 1.0063367e-38
-0.11373457 0.21351126 0.32242268 1.0063367e-38
-0.10561133 0.21442343 0.32360467 1.0063367e-38
-0.098764576 0.21472991 0.32699379 1.0063367e-38
-0.21658252 0.2254758 0.32340991 1.0063367e-38
-0.20398466 0.22473609 0.32816446 1.0063367e-38
-0.19570903 0.22595187 0.32408127 1.0063367e-38
-0.18558183 0.22386375 0.32134455 1.0063367e-38
-0.1400649 0.22023933 0.32060105 1.0063367e-38
-0.13425846 0.224479 0.32056025 1.0063367e-38
-0.1229085 0.22489929 0.32095125 1.0063367e-38
-0.11160631 0.22485231 0.3209652 1.0063367e-38
-0.10418598 0.22361958 0.32520124 1.0063367e-38
-0.096209176 0.22551082 0.32674402 1.0063367e-38
-0.21485047 0.23509076 0.32552069 1.0063367e-38
-0.2050299 0.23560289 0.3274523 1.0063367e-38
-0.19488439 0.2334369 0.32288343 1.0063367e-38
-0.18802217 0.23443668 0.32079124 1.0063367e-38
-0.13022581 0.2354973 0.32078269 9.971532e-39
-0.12357486 0.2350089 0.32104278 1.0063367e-38
-0.11789598 0.23594865 0.32091987 1.0063367e-38
-0.10451117 0.2354449 0.32410711 1.0063367e-38
-0.095187388 0.23488651 0.32622716 1.0063367e-38
-0.089741625 0.23778413 0.32953697 1.0063367e-38
-0.21590096 0.2455539 0.32291338 1.0063367e-38
-0.20632468 0.24499965 0.32771346 1.0063367e-38
-0.19438353 0.24424274 0.32271835 1.0063367e-38
-0.18607154 0.24703859 0.32039678 1.0063367e-38
-0.13248813 0.24606286 0.32086566 1.0063367e-38
-0.12461595 0.24543038 0.32247916 1.0063367e-38
-0.11418995 0.24613011 0.32439822 1.0063367e-38
-0.10479232 0.24598856 0.32453039 1.0063367e-38
-0.094849274 0.24685794 0.3242808 1.0063367e-38
-0.087829366 0.24575025 0.32937354 1.0063367e-38
-0.21371083 0.2534405 0.32317206 9.971532e-39
-0.20408501 0.25459921 0.32729 1.0063367e-38
-0.19484299 0.25434455 0.32403684 1.0063367e-38
-0.1854049 0.25557968 0.32133055 1.0063367e-38
-0.17994216 0.25956869 0.32095444 1.0063367e-38
-0.13529341 0.25615007 0.32144538 1.0063367e-38
-0.12407895 0.2535544 0.32298586 1.0063367e-38
-0.114422 0.25557795 0.3263647 1.0063367e-38
-0.10525382 0.25356594 0.32508653 1.0063367e-38
-0.095913619 0.25568101 0.32620889 1.0063367e-38
-0.087718368 0.25599328 0.32737747 1.0063367e-38
-0.21213031 0.26392043 0.32229665 1.0063367e-38
-0.20583688 0.26484179 0.32614228 1.0063367e-38
-0.19335929 0.26453066 0.3259789 1.0063367e-38
-0.1843937 0.26547498 0.32342029 1.0063367e-38
-0.17488225 0.26648781 0.32197887 1.0063367e-38
-0.16532689 0.26539296 0.32052839 1.0063367e-38
-0.15459377 0.26615241 0.32083505 1.0063367e-38
-0.14438885 0.2642093 0.32178438 1.0063367e-38
-0.13387935 0.26507363 0.32313421 1.0063367e-38
-0.12392192 0.26370916 0.32604456 1.0063367e-38
-0.11672597 0.26675799 0.32916412 1.0063367e-38
-0.20499547 0.27518591 0.3245697 1.0063367e-38
-0.19405207 0.27357611 0.32960522 1.0063367e-38
-0.18380827 0.27373886 0.3261632 1.0063367e-38
-0.17365636 0.27577022 0.32524833 1.0063367e-38
-0.1659725 0.27447531 0.3239755 1.0063367e-38
-0.15505552 0.27469304 0.32392919 1.0063367e-38
-0.14387348 0.27576077 0.32372677 1.0063367e-38
-0.13447201 0.2748006 0.32573944 1.0063367e-38
-0.12428261 0.27249071 0.32818252 1.0063367e-38
-0.20209944 0.28522977 0.32524356 1.0063367e-38
-0.19572619 0.28398848 0.32359993 1.0063367e-38
-0.18450633 0.28720546 0.32170954 1.0063367e-38
-0.17600097 0.28496853 0.32437584 1.0063367e-38
-0.16548957 0.28500143 0.32448265 1.0063367e-38
-0.15533002 0.28480649 0.32551318 1.0063367e-38
-0.14548765 0.28450117 0.32550019 1.0063367e-38
-0.13492101 0.28502235 0.32741269 1.0063367e-38
-0.12705444 0.28139657 0.32866627 1.0063367e-38
-0.19414514 0.29357526 0.32734987 1.0063367e-38
-0.184497 0.29488274 0.325883 1.0063367e-38
-0.17510031 0.29545575 0.32524541 1.0063367e-38
-0.16496554 0.29606587 0.3258082 1.0063367e-38
-0.1540129 0.29607603 0.32695657 9.971532e-39
-0.14570257 0.29444408 0.32765412 1.0063367e-38
-0.13806359 0.29190427 0.32856202 1.0063367e-38
-0.18066108 0.30197054 0.32994288 1.0063367e-38
-0.17396241 0.30188489 0.32894635 1.0063367e-38
-0.16577876 0.30163693 0.32910845 1.0063367e-38
-0.18057549 0.16942182 0.33883381 1.0063367e-38
-0.17495465 0.16933011 0.33827329 1.0063367e-38
-0.16691768 0.16856816 0.33859035 1.0063367e-38
-0.15712337 0.16990399 0.33851993 1.0063367e-38
-0.20371738 0.17827736 0.33783892 1.0063367e-38
-0.19403441 0.17465906 0.33717856 1.0063367e-38
-0.18571222 0.17526014 0.33491111 1.0063367e-38
-0.17524745 0.1762595 0.33387607 9.971532e-39
-0.16455269 0.17540745 0.33462191 1.0063367e-38
-0.15527579 0.17528911 0.33578953 1.0063367e-38
-0.1446415 0.1772531 0.3380228 1.0063367e-38
-0.13695146 0.17611168 0.33955318 1.0063367e-38
-0.21320574 0.18718217 0.33630729 1.0063367e-38
-0.20498985 0.18510166 0.33338037 1.0063367e-38
-0.19418816 0.18541345 0.33494809 1.0063367e-38
-0.18526392 0.18537822 0.33631888 1.0063367e-38
-0.17497817 0.18504256 0.33555701 1.0063367e-38
-0.16428035 0.1841442 0.33361995 9.971532e-39
-0.15455255 0.18438804 0.33317551 1.0063367e-38
-0.14477962 0.18416755 0.3344723 1.0063367e-38
-0.13530666 0.18487567 0.3359302 1.0063367e-38
-0.12512653 0.18701312 0.33692566 1.0063367e-38
-0.11402713 0.18834433 0.33587432 1.0063367e-38
-0.10461205 0.18704663 0.33551821 1.0063367e-38
-0.09609621 0.18672246 0.33665311 1.0063367e-38
-0.21440366 0.19578217 0.33463329 1.0063367e-38
-0.20485942 0.19582961 0.33310151 1.0063367e-38
-0.19539039 0.19504714 0.33525246 1.0063367e-38
-0.1863129 0.19355123 0.33282733 1.0063367e-38
-0.16911259 0.19056296 0.33053154 1.0063367e-38
-0.14718981 0.19111282 0.33115357 1.0063367e-38
-0.13535357 0.19261353 0.33155286 1.0063367e-38
-0.12530683 0.1944987 0.33258432 1.0063367e-38
-0.11531491 0.19410737 0.3341524 1.0063367e-38
-0.105044 0.19603759 0.33375171 1.0063367e-38
-0.09549243 0.19594581 0.33624062 1.0063367e-38
-0.21572529 0.20471752 0.33265603 1.0063367e-38
-0.20520148 0.20487113 0.33511373 1.0063367e-38
-0.19780007 0.20355418 0.33171529 1.0063367e-38
-0.10228132 0.20613772 0.33329836 1.0063367e-38
-0.096389234 0.20507136 0.33494419 1.0063367e-38
-0.088149637 0.20597211 0.33817133 1.0063367e-38
-0.21394549 0.21381791 0.33211595 1.0063367e-38
-0.20614666 0.21484406 0.33181456 1.0063367e-38
-0.10226747 0.21521112 0.33124036 1.0063367e-38
-0.0947382 0.21518247 0.33406529 1.0063367e-38
-0.085457906 0.21698217 0.33798736 1.0063367e-38
-0.21219456 0.22467685 0.3309986 1.0063367e-38
-0.20894741 0.22194201 0.33138436 1.0063367e-38
-0.094650298 0.22365889 0.33405396 1.0063367e-38
-0.085530043 0.22566268 0.33594453 1.0063367e-38
-0.094419032 0.23399892 0.33302358 1.0063367e-38
-0.085453801 0.23361118 0.3345809 1.0063367e-38
-0.078838132 0.2355797 0.33946878 1.0063367e-38
-0.093688458 0.24470559 0.33172581 1.0063367e-38
-0.084605046 0.24405542 0.33548301 1.0063367e-38
-0.077177055 0.24376081 0.33903885 1.0063367e-38
-0.11397959 0.25906432 0.3304404 1.0063367e-38
-0.10457139 0.2565937 0.33225679 1.0063367e-38
-0.094900906 0.25474396 0.33443198 1.0063367e-38
-0.084574237 0.25633675 0.33416405 1.0063367e-38
-0.077381819 0.2543056 0.33696872 1.0063367e-38
-0.12038478 0.26978207 0.33140224 1.0063367e-38
-0.11343868 0.2660594 0.33213961 1.0063367e-38
-0.10530841 0.26377109 0.33506489 1.0063367e-38
-0.096577249 0.26211011 0.33823618 1.0063367e-38
-0.19572827 0.2770882 0.33134028 1.0063367e-38
-0.18854873 0.27950758 0.33037472 1.0063367e-38
-0.12469753 0.27685884 0.33244625 1.0063367e-38
-0.11572018 0.27514118 0.33436462 1.0063367e-38
-0.10797443 0.27415964 0.33759198 1.0063367e-38
-0.19369504 0.28553069 0.33278471 1.0063367e-38
-0.18528353 0.28579783 0.3329035 1.0063367e-38
-0.17561948 0.28731138 0.33130854 1.0063367e-38
-0.16590205 0.28818253 0.330897 1.0063367e-38
-0.15454915 0.28884888 0.33154833 1.0063367e-38
-0.14343366 0.28704983 0.33180064 1.0063367e-38
-0.13412352 0.28384277 0.33224651 1.0063367e-38
-0.12514034 0.28483254 0.33436227 1.0063367e-38
-0.11658184 0.28470451 0.33703658 1.0063367e-38
-0.1094427 0.28237736 0.33922482 9.971532e-39
-0.19273253 0.29614681 0.33147928 1.0063367e-38
-0.18548898 0.29497242 0.33662406 1.0063367e-38
-0.17485812 0.2944802 0.33629951 1.0063367e-38
-0.1652925 0.29550076 0.33585581 1.0063367e-38
-0.15465538 0.29539719 0.33619255 1.0063367e-38
-0.14530167 0.29430458 0.33533546 1.0063367e-38
-0.13586649 0.29354647 0.33507228 1.0063367e-38
-0.12625751 0.29424188 0.33637518 1.0063367e-38
-0.11902019 0.29186746 0.33790141 1.0063367e-38
-0.19054683 0.30323648 0.33201534 1.0063367e-38
-0.18465835 0.30555668 0.33476898 1.0063367e-38
-0.17529586 0.30602625 0.33230761 1.0063367e-38
-0.16601451 0.30540863 0.33386144 1.0063367e-38
-0.15590037 0.30511582 0.33269301 1.0063367e-38
-0.14488858 0.30534303 0.33528513 1.0063367e-38
-0.13501549 0.30427393 0.33772168 1.0063367e-38
-0.12569392 0.30049115 0.33923721 1.0063367e-38
-0.18017827 0.3124519 0.33761507 1.0063367e-38
-0.17572039 0.31194511 0.33722675 1.0063367e-38
-0.16463913 0.31297928 0.3377957 1.0063367e-38
-0.15384561 0.31190819 0.33828601 1.0063367e-38
-0.14580649 0.31135905 0.33982289 1.0063367e-38
-0.17655522 0.15894479 0.34885186 1.0063367e-38
-0.1662837 0.15883183 0.34855083 1.0063367e-38
-0.15609543 0.15947531 0.34860054 1.0063367e-38
-0.20447889 0.16773634 0.34745657 1.0063367e-38
-0.19495872 0.16557106 0.34584212 1.0063367e-38
-0.18590352 0.1639225 0.3449837 1.0063367e-38
-0.17452969 0.1650137 0.34380114 1.0063367e-38
-0.16558959 0.16575073 0.3448385 1.0063367e-38
-0.15605123 0.16574882 0.34540355 1.0063367e-38
-0.14537357 0.16634892 0.34615737 1.0063367e-38
-0.13723072 0.16633144 0.34798092 1.0063367e-38
-0.1270766 0.16951159 0.34987104 1.0063367e-38
-0.21078461 0.17708328 0.34194922 1.0063367e-38
-0.20688815 0.17310731 0.34582227 1.0063367e-38
-0.19544402 0.17570491 0.34706819 1.0063367e-38
-0.18470834 0.17576681 0.34582937 1.0063367e-38
-0.17446138 0.17398003 0.3448928 1.0063367e-38
-0.16531309 0.17421502 0.34315255 1.0063367e-38
-0.15697028 0.1732448 0.34277034 1.0063367e-38
-0.14545375 0.17294092 0.34354034 1.0063367e-38
-0.13478787 0.17454098 0.34487426 1.0063367e-38
-0.1260139 0.17668973 0.3460595 1.0063367e-38
-0.11935721 0.17696464 0.3494072 1.0063367e-38
-0.21079646 0.18428634 0.34127131 1.0063367e-38
-0.20436676 0.18409441 0.34583014 1.0063367e-38
-0.19566183 0.18329857 0.34389153 1.0063367e-38
-0.18797788 0.18156624 0.34156209 1.0063367e-38
-0.13290994 0.18077585 0.34207147 1.0063367e-38
-0.12212416 0.1839219 0.34220666 1.0063367e-38
-0.11427514 0.18461888 0.3447842 1.0063367e-38
-0.1052199 0.18612248 0.34627908 1.0063367e-38
-0.095205173 0.18476796 0.34553966 1.0063367e-38
-0.086375296 0.18638602 0.34557727 1.0063367e-38
-0.20642428 0.19425659 0.34100133 1.0063367e-38
-0.11121334 0.19090095 0.34141999 1.0063367e-38
-0.10395823 0.19138512 0.34342784 1.0063367e-38
-0.094755128 0.19298889 0.34547028 1.0063367e-38
-0.085120864 0.19424224 0.34512746 1.0063367e-38
-0.092677683 0.205937 0.34135377 1.0063367e-38
-0.085844852 0.20556508 0.34505826 1.0063367e-38
-0.078569278 0.2047178 0.34764981 1.0063367e-38
-0.090723082 0.21531379 0.34120029 1.0063367e-38
-0.084689774 0.21553828 0.34531179 1.0063367e-38
-0.077293873 0.21609262 0.34525055 1.0063367e-38
-0.090139508 0.22057945 0.34050399 1.0063367e-38
-0.083790876 0.22498372 0.34314296 1.0063367e-38
-0.074200384 0.2253944 0.3458035 1.0063367e-38
-0.068595409 0.22908667 0.34980863 1.0063367e-38
-0.083789967 0.23554532 0.34258088 1.0063367e-38
-0.075150162 0.23457046 0.34453002 1.0063367e-38
-0.067307562 0.23544227 0.34947214 1.0063367e-38
-0.081209838 0.24662617 0.34268022 1.0063367e-38
-0.075148359 0.24408823 0.34488571 1.0063367e-38
-0.068089768 0.24480328 0.34706053 1.0063367e-38
-0.093535952 0.25688797 0.34179646 1.0063367e-38
-0.085712932 0.25504419 0.34476933 1.0063367e-38
-0.074618235 0.25334546 0.34467217 1.0063367e-38
-0.10121064 0.26768577 0.34164107 1.0063367e-38
-0.094174221 0.26514941 0.34583238 1.0063367e-38
-0.088305801 0.26300514 0.34880871 1.0063367e-38
-0.11170097 0.27884185 0.34080726 1.0063367e-38
-0.10405429 0.27560294 0.34275943 1.0063367e-38
-0.09789259 0.27383327 0.34577408 1.0063367e-38
-0.12262545 0.28889066 0.34040779 1.0063367e-38
-0.11279871 0.28719577 0.34411225 1.0063367e-38
-0.10423525 0.28454942 0.3460798 1.0063367e-38
-0.098124564 0.28079796 0.34869564 1.0063367e-38
-0.1810403 0.29852593 0.3403641 1.0063367e-38
-0.14142562 0.29874596 0.34108353 1.0063367e-38
-0.13345984 0.29784346 0.34283456 1.0063367e-38
-0.12352999 0.29677159 0.34447145 1.0063367e-38
-0.11515833 0.29470089 0.34502834 1.0063367e-38
-0.10795169 0.29522985 0.34824228 1.0063367e-38
-0.18042377 0.30278534 0.34075385 1.0063367e-38
-0.17608742 0.30638599 0.34343171 1.0063367e-38
-0.16549452 0.30536565 0.34468231 1.0063367e-38
-0.15552296 0.3061384 0.34545314 1.0063367e-38
-0.14570723 0.30417305 0.34508136 1.0063367e-38
-0.13553672 0.30464551 0.34580725 1.0063367e-38
-0.12507021 0.30497715 0.34459966 1.0063367e-38
-0.11762248 0.30510604 0.34759557 1.0063367e-38
-0.17333975 0.31609508 0.34321752 1.0063367e-38
-0.16684774 0.31746757 0.34433007 1.0063367e-38
-0.15440191 0.31711283 0.34285182 1.0063367e-38
-0.14365575 0.31506407 0.34387618 1.0063367e-38
-0.13560595 0.3150667 0.34706104 1.0063367e-38
-0.12802178 0.31156462 0.34722862 1.0063367e-38
-0.16358683 0.32251543 0.34773245 1.0063367e-38
-0.15757665 0.32169849 0.34738928 1.0063367e-38
-0.1473705 0.3205891 0.34801447 1.0063367e-38
-0.20052359 0.1592077 0.35608602 1.0063367e-38
-0.19453391 0.15697668 0.35619676 1.0063367e-38
-0.18529285 0.15569201 0.35419261 1.0063367e-38
-0.17486718 0.1545887 0.35404843 1.0063367e-38
-0.16502419 0.15359202 0.35513973 1.0063367e-38
-0.15427688 0.15504004 0.35439348 1.0063367e-38
-0.145505 0.15538526 0.35632581 1.0063367e-38
-0.13607213 0.15790863 0.35745752 1.0063367e-38
-0.20199485 0.16381721 0.35263816 1.0063367e-38
-0.19605467 0.16604003 0.35693794 1.0063367e-38
-0.18536833 0.16789702 0.35497653 1.0063367e-38
-0.17511462 0.16550052 0.3543371 1.0063367e-38
-0.16510284 0.16381499 0.35510495 1.0063367e-38
-0.15448295 0.16374967 0.35486424 1.0063367e-38
-0.14408588 0.16381736 0.35448423 1.0063367e-38
-0.13558403 0.16443339 0.35465658 1.0063367e-38
-0.12502488 0.1663067 0.35606062 1.0063367e-38
-0.1160217 0.16709954 0.35970855 1.0063367e-38
-0.2019195 0.17243749 0.35212314 1.0063367e-38
-0.19525829 0.17361365 0.35326183 1.0063367e-38
-0.18762228 0.17235357 0.35052598 1.0063367e-38
-0.12585327 0.17249289 0.35273707 9.971532e-39
-0.11536171 0.17380945 0.35630992 1.0063367e-38
-0.10759126 0.17807701 0.35738513 9.9711718e-39
-0.11316917 0.18011032 0.35170746 1.0063367e-38
-0.10439735 0.18337883 0.35321838 1.0063367e-38
-0.096848182 0.18566418 0.35538036 1.0063367e-38
-0.08547578 0.1878631 0.35429761 1.0063367e-38
-0.078373283 0.1886445 0.35099444 1.0063367e-38
-0.092126571 0.19145921 0.35519159 1.0063367e-38
-0.084327348 0.19448897 0.35662127 1.0063367e-38
-0.075838745 0.19502188 0.35494223 1.0063367e-38
-0.068439968 0.19916743 0.35681784 1.0063367e-38
-0.082155496 0.20363557 0.35127428 1.0063367e-38
-0.074032441 0.20426564 0.35447702 1.0063367e-38
-0.067096062 0.20372757 0.3579098 1.0063367e-38
-0.080227241 0.21132727 0.35118699 1.0063367e-38
-0.074795447 0.21506575 0.35326397 1.0063367e-38
-0.065774605 0.21313713 0.35639232 1.0063367e-38
-0.074251011 0.22469798 0.35330489 1.0063367e-38
-0.06497179 0.22495624 0.35623866 1.0063367e-38
-0.072754234 0.23568901 0.35382006 1.0063367e-38
-0.064144693 0.23481692 0.35565156 1.0063367e-38
-0.074810237 0.24585982 0.35489652 1.0063367e-38
-0.066343144 0.24338458 0.35362971 1.0063367e-38
-0.082292214 0.25552171 0.35336226 9.971532e-39
-0.076650687 0.25423294 0.35495454 1.0063367e-38
-0.090235986 0.2661314 0.35180461 1.0063367e-38
-0.085001536 0.26511392 0.3553167 1.0063367e-38
-0.0927561 0.27595329 0.35298979 9.971532e-39
-0.086759709 0.27510738 0.35682359 1.0063367e-38
-0.10232849 0.28698492 0.3529762 1.0063367e-38
-0.094916098 0.28505296 0.35544884 1.0063367e-38
-0.11276854 0.29709998 0.35369593 1.0063367e-38
-0.10429626 0.29523915 0.35474193 1.0063367e-38
-0.097229108 0.29396868 0.35649261 1.0063367e-38
-0.13312928 0.3080408 0.35343379 1.0063367e-38
-0.12463572 0.30545279 0.35502204 1.0063367e-38
-0.11392578 0.30420658 0.35396165 1.0063367e-38
-0.10619791 0.30336282 0.35508689 1.0063367e-38
-0.1644017 0.31442678 0.35148045 1.0063367e-38
-0.15491536 0.31403285 0.3546212 1.0063367e-38
-0.14532661 0.31330961 0.35557431 1.0063367e-38
-0.13424087 0.31348258 0.35580981 1.0063367e-38
-0.12443975 0.31662631 0.35476229 1.0063367e-38
-0.11614259 0.31395602 0.35756046 1.0063367e-38
-0.161311 0.32447046 0.35260433 1.0063367e-38
-0.15414689 0.32629061 0.35544917 1.0063367e-38
-0.14487191 0.32464403 0.3539685 1.0063367e-38
-0.13403337 0.32404006 0.35774872 1.0063367e-38
-0.12441947 0.32036254 0.35907012 1.0063367e-38
-0.18506712 0.14811814 0.36609039 1.0063367e-38
-0.17512897 0.14714082 0.36483166 1.0063367e-38
-0.16538143 0.14666072 0.36532518 1.0063367e-38
-0.1555976 0.14703107 0.36604065 1.0063367e-38
-0.14479184 0.14852761 0.36649042 1.0063367e-38
-0.19293174 0.15370947 0.36375922 1.0063367e-38
-0.18545875 0.15600118 0.36552545 1.0063367e-38
-0.17535512 0.15634042 0.36526102 1.0063367e-38
-0.16509156 0.15771143 0.36392453 1.0063367e-38
-0.15616791 0.15601037 0.36415288 1.0063367e-38
-0.14469367 0.15607829 0.36488527 1.0063367e-38
-0.13413832 0.1550823 0.36656365 1.0063367e-38
-0.12475684 0.15680781 0.36706939 1.0063367e-38
-0.11785647 0.15936084 0.36779618 1.0063367e-38
-0.19298337 0.1618751 0.36230844 1.0063367e-38
-0.18485379 0.16217297 0.36263114 1.0063367e-38
-0.17433934 0.16058399 0.36092988 1.0063367e-38
-0.1450852 0.16006759 0.36130863 1.0063367e-38
-0.13462959 0.1616613 0.36210132 1.0063367e-38
-0.124521 0.16294077 0.36389911 1.0063367e-38
-0.11471874 0.16618234 0.36561322 1.0063367e-38
-0.10786357 0.16814746 0.36570713 1.0063367e-38
-0.11268376 0.17167222 0.36188412 1.0063367e-38
-0.10367082 0.17446858 0.36569244 1.0063367e-38
-0.097739175 0.17834149 0.36661443 1.0063367e-38
-0.093544856 0.18404908 0.36518019 9.971532e-39
-0.086768433 0.18835954 0.36577708 1.0063367e-38
-0.084466659 0.19387534 0.36586267 1.0063367e-38
-0.076245971 0.19726656 0.36383334 9.971532e-39
-0.074897654 0.20485005 0.36524084 1.0063367e-38
-0.066347048 0.20674287 0.36250025 1.0063367e-38
-0.072439596 0.21346265 0.36345702 1.0063367e-38
-0.065615393 0.21578595 0.36400089 1.0063367e-38
-0.071327262 0.22334237 0.36564744 1.0063367e-38
-0.064723477 0.22603846 0.3647722 1.0063367e-38
-0.071856305 0.23366103 0.36440808 1.0063367e-38
-0.06720306 0.2352106 0.36398381 1.0063367e-38
-0.072714701 0.24481145 0.36436653 1.0063367e-38
-0.069834881 0.24486962 0.36869144 1.0063367e-38
-0.076049991 0.25477991 0.36404943 1.0063367e-38
-0.082292877 0.26675189 0.36283848 1.0063367e-38
-0.076898724 0.26411954 0.36590987 1.0063367e-38
-0.083418436 0.27532622 0.36449403 1.0063367e-38
-0.07733506 0.27542776 0.36930871 1.0063367e-38
-0.09271235 0.28492916 0.36246657 1.0063367e-38
-0.085957788 0.28478503 0.36535057 1.0063367e-38
-0.10267267 0.29612848 0.36185542 1.0063367e-38
-0.095669672 0.29537818 0.36482176 1.0063367e-38
-0.088143766 0.29272947 0.36605054 1.0063367e-38
-0.12279641 0.30889696 0.36042988 1.0063367e-38
-0.11392762 0.3061586 0.36395788 1.0063367e-38
-0.1044524 0.30417627 0.36569422 1.0063367e-38
-0.096023738 0.30279219 0.36511755 1.0063367e-38
-0.14532356 0.3186048 0.36323294 1.0063367e-38
-0.13506508 0.31627235 0.3637464 1.0063367e-38
-0.12402725 0.31431019 0.36452025 1.0063367e-38
-0.11431883 0.31624827 0.36497721 1.0063367e-38
-0.10632432 0.31327289 0.36578459 1.0063367e-38
-0.15258157 0.3217493 0.36043873 1.0063367e-38
-0.14608525 0.32309622 0.36538512 1.0063367e-38
-0.1356772 0.32656023 0.36446461 1.0063367e-38
-0.12514864 0.32566845 0.36578709 1.0063367e-38
-0.11920885 0.32299268 0.36652005 1.0063367e-38
-0.14257906 0.33145487 0.36604905 1.0063367e-38
-0.13857166 0.33195204 0.36714217 1.0063367e-38
-0.17175665 0.13973379 0.37917876 1.0063367e-38
-0.18292646 0.14589477 0.37344 1.0063367e-38
-0.17586404 0.14414474 0.37559766 1.0063367e-38
-0.1654321 0.1414423 0.37486568 1.0063367e-38
-0.15463784 0.14230561 0.37489039 1.0063367e-38
-0.14477023 0.14360937 0.37585902 1.0063367e-38
-0.13471696 0.14644927 0.37539563 1.0063367e-38
-0.12691696 0.14867385 0.37672019 1.0063367e-38
-0.18466401 0.15282364 0.37148297 1.0063367e-38
-0.17626913 0.15319173 0.37483451 1.0063367e-38
-0.16560027 0.15249728 0.37427315 1.0063367e-38
-0.15489726 0.15232328 0.37404761 1.0063367e-38
-0.14511114 0.15280433 0.37556872 1.0063367e-38
-0.13457881 0.15522388 0.37476197 1.0063367e-38
-0.12470934 0.1557028 0.37427303 1.0063367e-38
-0.11551844 0.15668955 0.37592423 1.0063367e-38
-0.10792584 0.15869573 0.37892455 1.0063367e-38
-0.1200968 0.16255248 0.37060088 1.0063367e-38
-0.11324257 0.1625597 0.37532574 1.0063367e-38
-0.10560244 0.16547546 0.37456286 1.0063367e-38
-0.099546045 0.16803019 0.37559259 1.0063367e-38
-0.10325803 0.17200369 0.37322459 1.0063367e-38
-0.09556409 0.17523158 0.37402916 1.0063367e-38
-0.08958786 0.17844921 0.37730151 1.0063367e-38
-0.090475187 0.18232134 0.37166452 1.0063367e-38
-0.085439347 0.1854181 0.37640131 1.0063367e-38
-0.078963518 0.18965548 0.3797428 1.0063367e-38
-0.081833042 0.19326259 0.37437344 1.0063367e-38
-0.078040041 0.19538261 0.37548324 1.0063367e-38
-0.074343748 0.20462608 0.37487608 1.0063367e-38
-0.072078027 0.21391903 0.3747766 1.0063367e-38
-0.069426268 0.2154586 0.37573403 1.0063367e-38
-0.070426486 0.22471426 0.37317705 1.0063367e-38
-0.067533158 0.22340004 0.37574816 1.0063367e-38
-0.070949495 0.23700751 0.37160495 1.0063367e-38
-0.067615747 0.23392424 0.37540936 9.971532e-39
-0.071133211 0.24624602 0.3726272 1.0063367e-38
-0.067486808 0.24525882 0.3771438 1.0063367e-38
-0.071379758 0.254439 0.37281686 1.0063367e-38
-0.068429038 0.25570399 0.37831253 1.0063367e-38
-0.073592842 0.26536813 0.37441492 1.0063367e-38
-0.068075277 0.2629191 0.3789916 1.0063367e-38
-0.076031685 0.27492368 0.37550554 1.0063367e-38
-0.085019551 0.28539777 0.37370694 1.0063367e-38
-0.078099936 0.28432247 0.37541828 1.0063367e-38
-0.094009213 0.29656887 0.37391448 1.0063367e-38
-0.084561437 0.29556006 0.37509251 1.0063367e-38
-0.10345177 0.30629 0.37611493 1.0063367e-38
-0.094615266 0.3051554 0.37471256 1.0063367e-38
-0.087676674 0.30253318 0.37611496 1.0063367e-38
-0.12530285 0.31786627 0.37319875 1.0063367e-38
-0.1149466 0.31429899 0.37606558 1.0063367e-38
-0.10526156 0.31479475 0.37489235 1.0063367e-38
-0.096766695 0.31242338 0.37651965 1.0063367e-38
-0.14063562 0.32435369 0.37046015 1.0063367e-38
-0.13478599 0.32425103 0.37395358 1.0063367e-38
-0.12683968 0.32399949 0.37772247 1.0063367e-38
-0.11493023 0.32531309 0.3745304 1.0063367e-38
-0.10666692 0.32198989 0.37826189 1.0063367e-38
-0.13352787 0.33225209 0.37388468 1.0063367e-38
-0.12593064 0.33211631 0.37701279 1.0063367e-38
-0.17374022 0.13820128 0.38318843 1.0063367e-38
-0.16471541 0.13738564 0.38544437 1.0063367e-38
-0.15513831 0.13783017 0.38519034 1.0063367e-38
-0.14425908 0.13941991 0.38571835 1.0063367e-38
-0.17306513 0.1447766 0.38339296 1.0063367e-38
-0.16607074 0.14689477 0.38597453 1.0063367e-38
-0.15503371 0.1482498 0.38503695 1.0063367e-38
-0.14389133 0.14749692 0.38460213 1.0063367e-38
-0.13477045 0.14307646 0.38568714 1.0063367e-38
-0.12387826 0.1462597 0.38481909 1.0063367e-38
-0.11765324 0.14932339 0.38450179 1.0063367e-38
-0.17245789 0.15016663 0.38180149 1.0063367e-38
-0.13464293 0.15158288 0.38431129 1.0063367e-38
-0.12429699 0.15465322 0.3847104 1.0063367e-38
-0.11297318 0.15560365 0.3862319 1.0063367e-38
-0.10448476 0.157208 0.38594016 1.0063367e-38
-0.11020347 0.16183937 0.38306361 1.0063367e-38
-0.10389575 0.16429447 0.38444009 1.0063367e-38
-0.096523926 0.16573438 0.38583213 1.0063367e-38
-0.093387924 0.17408723 0.38377851 1.0063367e-38
-0.086588405 0.17575067 0.38566893 1.0063367e-38
-0.082602493 0.18532321 0.38408819 9.971532e-39
-0.077463672 0.18555973 0.38834876 1.0063367e-38
-0.075366475 0.19497149 0.38551626 1.0063367e-38
-0.072108224 0.20457344 0.38440332 1.0063367e-38
-0.068473533 0.2052816 0.38718843 1.0063367e-38
-0.070492893 0.21298404 0.38223988 1.0063367e-38
-0.066932932 0.2137306 0.38532311 9.971532e-39
-0.065679453 0.22477217 0.38460636 1.0063367e-38
-0.064105794 0.23533669 0.38583884 1.0063367e-38
-0.064775951 0.2452414 0.38546291 1.0063367e-38
-0.065908685 0.25490043 0.38452765 1.0063367e-38
-0.07204207 0.26677814 0.38296068 1.0063367e-38
-0.067413695 0.26515698 0.38560781 1.0063367e-38
-0.073556542 0.27579698 0.38474947 1.0063367e-38
-0.068022497 0.27523369 0.38666326 1.0063367e-38
-0.082579434 0.28864768 0.38361549 1.0063367e-38
-0.074925512 0.28419039 0.38400024 1.0063367e-38
-0.091722921 0.29866248 0.38178417 1.0063367e-38
-0.085681878 0.2953167 0.38412803 1.0063367e-38
-0.076988116 0.2935468 0.38598624 1.0063367e-38
-0.1019613 0.30845577 0.3823663 1.0063367e-38
-0.094566882 0.30396992 0.38715929 1.0063367e-38
-0.085247681 0.30385357 0.38537675 1.0063367e-38
-0.1145577 0.31772849 0.38521343 1.0063367e-38
-0.10474481 0.31237113 0.38660902 1.0063367e-38
-0.093899213 0.31455177 0.38485429 1.0063367e-38
-0.1240024 0.32625017 0.38417062 1.0063367e-38
-0.11437809 0.32633978 0.38752279 1.0063367e-38
-0.10493749 0.32445639 0.38581479 1.0063367e-38
-0.098701276 0.32127863 0.38902038 1.0063367e-38
-0.12197773 0.33228964 0.38436866 1.0063367e-38
-0.11580965 0.33080077 0.38600963 1.0063367e-38
-0.16252105 0.13523464 0.39353067 1.0063367e-38
-0.15577996 0.13607088 0.39593971 1.0063367e-38
-0.14557385 0.13626504 0.39470297 1.0063367e-38
-0.13449727 0.13867682 0.39555165 1.0063367e-38
-0.12834869 0.13974243 0.39922702 1.0063367e-38
-0.1623629 0.1439258 0.39232248 1.0063367e-38
-0.15505072 0.14512645 0.39605832 1.0063367e-38
-0.1445055 0.14671913 0.39447019 1.0063367e-38
-0.13370407 0.14704138 0.39529511 1.0063367e-38
-0.1250042 0.14396298 0.39490098 1.0063367e-38
-0.11471528 0.14719079 0.39474148 1.0063367e-38
-0.12376475 0.15230864 0.39363566 1.0063367e-38
-0.11501845 0.15547907 0.39636135 1.0063367e-38
-0.10540524 0.15416558 0.39611679 1.0063367e-38
-0.097751886 0.15810421 0.39559007 1.0063367e-38
-0.10255662 0.16279487 0.39550611 1.0063367e-38
-0.0941507 0.16476622 0.39477044 1.0063367e-38
-0.087105513 0.16749831 0.39759287 1.0063367e-38
-0.091638118 0.17142943 0.3963362 1.0063367e-38
-0.084252574 0.17453989 0.39512384 1.0063367e-38
-0.078975022 0.17950688 0.39427209 1.0063367e-38
-0.082911007 0.18283114 0.39234895 1.0063367e-38
-0.075951792 0.18621218 0.39517835 1.0063367e-38
-0.072379552 0.19502302 0.39500231 1.0063367e-38
-0.068576738 0.19893289 0.39563006 1.0063367e-38
-0.070495799 0.20468569 0.39233881 1.0063367e-38
-0.066310272 0.20524405 0.39566866 9.971532e-39
-0.064434573 0.21526504 0.39491394 1.0063367e-38
-0.063311547 0.22489493 0.39467615 1.0063367e-38
-0.059132654 0.22691579 0.39858842 1.0063367e-38
-0.062362026 0.23422135 0.39467651 1.0063367e-38
-0.058084249 0.23571698 0.39931309 1.0063367e-38
-0.062772334 0.24374124 0.39340135 1.0063367e-38
-0.059392065 0.24421954 0.39495096 1.0063367e-38
-0.063522674 0.25472286 0.39489102 1.0063367e-38
-0.059369609 0.25275186 0.39662227 1.0063367e-38
-0.065195687 0.26622057 0.39495787 1.0063367e-38
-0.059729993 0.26178837 0.39956129 1.0063367e-38
-0.071956299 0.27566448 0.39355141 1.0063367e-38
-0.065065071 0.274492 0.39594156 1.0063367e-38
-0.080153383 0.28906247 0.3914941 1.0063367e-38
-0.075346813 0.28487751 0.39509413 1.0063367e-38
-0.068387419 0.28547308 0.39582378 1.0063367e-38
-0.083695322 0.2950125 0.39497957 1.0063367e-38
-0.074680336 0.29470912 0.39545086 1.0063367e-38
-0.094091177 0.30659813 0.39536351 1.0063367e-38
-0.083128676 0.30564106 0.39515477 1.0063367e-38
-0.078010552 0.30195338 0.39650336 1.0063367e-38
-0.11097534 0.31942099 0.39597881 1.0063367e-38
-0.10541355 0.31557646 0.39614412 1.0063367e-38
-0.093604892 0.31671616 0.39574099 1.0063367e-38
-0.088089548 0.31294119 0.39348292 1.0063367e-38
-0.11375342 0.32422024 0.39368403 1.0063367e-38
-0.10567797 0.32655379 0.39633766 1.0063367e-38
-0.097032174 0.32296354 0.39846 1.0063367e-38
-0.11247864 0.33083111 0.39265996 1.0063367e-38
-0.1523709 0.13511288 0.4025948 1.0063367e-38
-0.1461255 0.13480814 0.40525919 1.0063367e-38
-0.13497159 0.13645975 0.4050864 1.0063367e-38
-0.12689951 0.1384511 0.40731177 1.0063367e-38
-0.15082684 0.14359209 0.40212956 1.0063367e-38
-0.14376897 0.14460465 0.40598354 1.0063367e-38
-0.13490483 0.14693728 0.40442434 1.0063367e-38
-0.125818 0.14531867 0.40434286 1.0063367e-38
-0.11477217 0.14460254 0.40455243 1.0063367e-38
-0.10731184 0.14854632 0.40573391 1.0063367e-38
-0.1229099 0.15069035 0.40306485 1.0063367e-38
-0.1157762 0.15359762 0.40482688 1.0063367e-38
-0.1058266 0.15666942 0.40565488 1.0063367e-38
-0.097335182 0.1554189 0.40548524 1.0063367e-38
-0.10186161 0.161746 0.40408811 1.0063367e-38
-0.09447901 0.16433139 0.40389395 1.0063367e-38
-0.085542522 0.16587055 0.40639123 1.0063367e-38
-0.090627261 0.17076035 0.40246248 1.0063367e-38
-0.085185945 0.17501788 0.40505832 1.0063367e-38
-0.077377252 0.17559572 0.40677315 1.0063367e-38
-0.080780804 0.18137437 0.40490881 1.0063367e-38
-0.075269535 0.18452214 0.40496799 1.0063367e-38
-0.069633432 0.18654802 0.40933943 1.0063367e-38
-0.072374262 0.19468603 0.40401384 1.0063367e-38
-0.067147471 0.19524588 0.40532517 1.0063367e-38
-0.070012212 0.20136815 0.40013075 1.0063367e-38
-0.064563558 0.20563494 0.40561876 1.0063367e-38
-0.063503295 0.21494932 0.40492791 1.0063367e-38
-0.058804929 0.21681128 0.40653151 1.0063367e-38
-0.06183172 0.22524334 0.4031091 1.0063367e-38
-0.057721607 0.22495681 0.40622789 1.0063367e-38
-0.061674938 0.23432702 0.40535614 1.0063367e-38
-0.05699373 0.23508583 0.40485579 1.0063367e-38
-0.061921537 0.24539503 0.40495688 1.0063367e-38
-0.056945357 0.2448699 0.40504795 1.0063367e-38
-0.062668405 0.25604865 0.40489665 1.0063367e-38
-0.057542339 0.25540501 0.40575117 1.0063367e-38
-0.065111369 0.26560941 0.40432343 1.0063367e-38
-0.058713675 0.2658512 0.40678 1.0063367e-38
-0.070932679 0.27748594 0.40369815 1.0063367e-38
-0.063937359 0.27410501 0.40478748 1.0063367e-38
-0.075365692 0.28593025 0.40520605 1.0063367e-38
-0.065781996 0.28499162 0.40533358 1.0063367e-38
-0.082828298 0.2966404 0.40399799 1.0063367e-38
-0.073928885 0.29572132 0.40348312 1.0063367e-38
-0.069383778 0.29262209 0.40692645 1.0063367e-38
-0.092566967 0.30685684 0.4034375 1.0063367e-38
-0.084191233 0.30412683 0.40495259 1.0063367e-38
-0.077310123 0.30474004 0.40617076 1.0063367e-38
-0.1017411 0.31625646 0.40538892 1.0063367e-38
-0.096312679 0.31415924 0.40582204 1.0063367e-38
-0.085691094 0.31414089 0.4039064 1.0063367e-38
-0.10221046 0.32363367 0.40371871 1.0063367e-38
-0.095901735 0.32332343 0.40627632 1.0063367e-38
-0.14179042 0.1346747 0.41228214 1.0063367e-38
-0.13556981 0.1364001 0.41514823 1.0063367e-38
-0.12614086 0.13797446 0.41559708 1.0063367e-38
-0.1400888 0.14165145 0.41266495 1.0063367e-38
-0.13367544 0.14484458 0.41485423 1.0063367e-38
-0.12652767 0.14870641 0.41408402 1.0063367e-38
-0.11525358 0.14255457 0.41482335 1.0063367e-38
-0.10614445 0.14759009 0.41575012 1.0063367e-38
-0.1216094 0.15045074 0.41649854 1.0063367e-38
-0.11423298 0.15353996 0.41433984 1.0063367e-38
-0.10427924 0.15484826 0.41507614 1.0063367e-38
-0.095121205 0.15556578 0.41501075 1.0063367e-38
-0.089781277 0.15971147 0.41722715 1.0063367e-38
-0.10183126 0.16086088 0.41537756 1.0063367e-38
-0.095985018 0.16541025 0.41359353 1.0063367e-38
-0.084778719 0.16497359 0.41435829 1.0063367e-38
-0.090276554 0.1702943 0.41595072 1.0063367e-38
-0.085058957 0.17559366 0.4152281 1.0063367e-38
-0.075727858 0.17529923 0.41606361 1.0063367e-38
-0.08007516 0.18127508 0.41241777 1.0063367e-38
-0.075775884 0.18457291 0.41454446 1.0063367e-38
-0.068028241 0.18723053 0.41595268 1.0063367e-38
-0.071844354 0.19406858 0.41519424 1.0063367e-38
-0.064426169 0.19487065 0.41481984 1.0063367e-38
-0.065104067 0.20412412 0.41426098 1.0063367e-38
-0.058886256 0.20812711 0.4175114 1.0063367e-38
-0.06364692 0.21524829 0.41506153 1.0063367e-38
-0.057657674 0.21540897 0.41474348 1.0063367e-38
-0.061892875 0.22433913 0.41470596 1.0063367e-38
-0.056257255 0.2249627 0.41418952 1.0063367e-38
-0.060954489 0.23523085 0.41512352 1.0063367e-38
-0.054561999 0.23579328 0.41481918 1.0063367e-38
-0.061355524 0.24549334 0.41660747 1.0063367e-38
-0.054453582 0.24514532 0.41517979 1.0063367e-38
-0.062721059 0.2548531 0.4152635 1.0063367e-38
-0.055437669 0.25519961 0.41463143 1.0063367e-38
-0.06501624 0.26407805 0.41503298 1.0063367e-38
-0.057043813 0.26404947 0.41509113 1.0063367e-38
-0.070260376 0.27805746 0.41499025 1.0063367e-38
-0.06524647 0.27538872 0.41479865 1.0063367e-38
-0.059433471 0.27256918 0.41451785 1.0063367e-38
-0.07348989 0.28422377 0.4150416 1.0063367e-38
-0.064392552 0.28546149 0.41619751 1.0063367e-38
-0.082907431 0.29776642 0.41528156 1.0063367e-38
-0.075065419 0.29542279 0.41427219 1.0063367e-38
-0.068599604 0.29383382 0.41572547 1.0063367e-38
-0.09171389 0.30720365 0.41378665 1.0063367e-38
-0.086707786 0.30556503 0.41480589 1.0063367e-38
-0.075526811 0.30450207 0.41604388 1.0063367e-38
-0.094061069 0.3126449 0.41331893 1.0063367e-38
-0.085384026 0.31500825 0.41486779 1.0063367e-38
-0.091533661 0.32088932 0.41182142 1.0063367e-38
-0.089605384 0.3200264 0.41546041 1.0063367e-38
-0.1313104 0.13657638 0.42080718 1.0063367e-38
-0.12446714 0.13890955 0.42420298 1.0063367e-38
-0.12453323 0.14663057 0.42427182 1.0063367e-38
-0.11486602 0.14388362 0.42545527 1.0063367e-38
-0.10567497 0.14725089 0.42502338 1.0063367e-38
-0.12254424 0.15033081 0.42309451 1.0063367e-38
-0.11583121 0.15337479 0.42408279 1.0063367e-38
-0.10676399 0.15803382 0.42397389 1.0063367e-38
-0.094789132 0.15503167 0.42571673 1.0063367e-38
-0.089606896 0.15961677 0.42089593 1.0063367e-38
-0.10146163 0.16123769 0.42413267 1.0063367e-38
-0.095273741 0.16618323 0.42436782 1.0063367e-38
-0.084457867 0.16454946 0.42480296 1.0063367e-38
-0.079980224 0.16931373 0.42771232 1.0063367e-38
-0.091204278 0.17009282 0.42940533 1.0063367e-38
-0.085537635 0.17567867 0.42448673 1.0063367e-38
-0.075478315 0.1749364 0.42484319 1.0063367e-38
-0.081043407 0.18109296 0.42603087 1.0063367e-38
-0.074591927 0.18479279 0.42490876 1.0063367e-38
-0.067647181 0.18668921 0.42332494 1.0063367e-38
-0.07239648 0.19435094 0.4251256 1.0063367e-38
-0.064568751 0.19508818 0.42473337 1.0063367e-38
-0.065832615 0.2039648 0.42544219 1.0063367e-38
-0.059067056 0.20612958 0.42347443 1.0063367e-38
-0.064154126 0.21555392 0.42467245 1.0063367e-38
-0.056545936 0.21505688 0.42479762 1.0063367e-38
-0.062333301 0.22550747 0.42522514 1.0063367e-38
-0.054759633 0.22453324 0.42540452 1.0063367e-38
-0.061611295 0.23505454 0.42536411 1.0063367e-38
-0.053794127 0.23423409 0.42401442 1.0063367e-38
-0.061762206 0.24425355 0.42478973 1.0063367e-38
-0.053862058 0.24531603 0.4252809 1.0063367e-38
-0.062991843 0.25408348 0.42502809 1.0063367e-38
-0.054673236 0.25389576 0.4257358 1.0063367e-38
-0.065432899 0.26461959 0.4251214 1.0063367e-38
-0.056431331 0.26359773 0.42544052 1.0063367e-38
-0.071030602 0.27866811 0.42534941 1.0063367e-38
-0.066320889 0.27506459 0.42467183 1.0063367e-38
-0.059055217 0.27328321 0.42541617 1.0063367e-38
-0.074637078 0.28523394 0.42521882 1.0063367e-38
-0.06352172 0.2851029 0.42442134 1.0063367e-38
-0.082165673 0.29664999 0.42369974 1.0063367e-38
-0.075336732 0.29393342 0.42548114 1.0063367e-38
-0.06727311 0.29259148 0.42462683 1.0063367e-38
-0.083781511 0.30480215 0.42408305 1.0063367e-38
-0.076583341 0.30596709 0.42531455 1.0063367e-38
-0.082145266 0.31269878 0.42211723 1.0063367e-38
-0.079995938 0.3111285 0.42540079 1.0063367e-38
-0.11506136 0.14454518 0.43260598 1.0063367e-38
-0.10652535 0.14742437 0.43401927 1.0063367e-38
-0.11193089 0.15447374 0.43264112 1.0063367e-38
-0.10594694 0.15465596 0.43635887 1.0063367e-38
-0.096120775 0.15459774 0.43605921 1.0063367e-38
-0.089973636 0.15933225 0.43594539 1.0063367e-38
-0.10305545 0.16207205 0.43407804 1.0063367e-38
-0.09728995 0.16662876 0.43523273 1.0063367e-38
-0.085694827 0.16350476 0.43483108 1.0063367e-38
-0.091617957 0.17214912 0.43725881 9.971532e-39
-0.086802594 0.17590807 0.43419668 1.0063367e-38
-0.076155975 0.17443663 0.4342123 1.0063367e-38
-0.082148574 0.18176696 0.43535638 1.0063367e-38
-0.07603699 0.1848399 0.43500328 1.0063367e-38
-0.068204485 0.18640584 0.43408427 1.0063367e-38
-0.073529333 0.19509003 0.43547481 1.0063367e-38
-0.063563019 0.19569932 0.43509248 1.0063367e-38
-0.070088215 0.20166132 0.43445218 1.0063367e-38
-0.065468155 0.2042809 0.43442854 1.0063367e-38
-0.059135091 0.20695531 0.43446213 1.0063367e-38
-0.065827623 0.21453798 0.43502527 1.0063367e-38
-0.056761831 0.21586362 0.43499044 1.0063367e-38
-0.063665926 0.22464709 0.4344371 1.0063367e-38
-0.054851808 0.22609586 0.43427804 1.0063367e-38
-0.062628657 0.23503719 0.43427753 1.0063367e-38
-0.054212857 0.23469926 0.43565193 1.0063367e-38
-0.062988609 0.24454796 0.43512994 1.0063367e-38
-0.054127924 0.24445873 0.43470979 1.0063367e-38
-0.064775363 0.25564799 0.43614349 1.0063367e-38
-0.055167619 0.25578022 0.43454674 1.0063367e-38
-0.067209527 0.26559559 0.43469721 1.0063367e-38
-0.057374012 0.26684508 0.43558246 1.0063367e-38
-0.071811557 0.27712125 0.43449771 1.0063367e-38
-0.06509915 0.27473834 0.43505752 1.0063367e-38
-0.058762331 0.2726793 0.43355909 1.0063367e-38
-0.074526392 0.2855888 0.43589813 1.0063367e-38
-0.064092547 0.28536078 0.43409258 1.0063367e-38
-0.074719861 0.29449213 0.43387035 1.0063367e-38
-0.068150736 0.29315919 0.4353444 1.0063367e-38
-0.075213782 0.30233902 0.43159777 1.0063367e-38
-0.10594178 0.14823768 0.44042301 1.0063367e-38
-0.10184911 0.15368803 0.44232559 1.0063367e-38
-0.0951107 0.1571003 0.44418675 1.0063367e-38
-0.10131031 0.16223513 0.441504 1.0063367e-38
-0.094982944 0.16469942 0.44574952 1.0063367e-38
-0.085022174 0.16594017 0.44439742 1.0063367e-38
-0.091713026 0.17358723 0.44532678 1.0063367e-38
-0.084304318 0.17495666 0.4459171 1.0063367e-38
-0.076001324 0.1764418 0.4448351 1.0063367e-38
-0.083580837 0.184562 0.44582963 1.0063367e-38
-0.07305821 0.18468174 0.44345498 1.0063367e-38
-0.06842643 0.18770224 0.44415319 1.0063367e-38
-0.075810738 0.19589578 0.4446919 1.0063367e-38
-0.065615654 0.19367564 0.44514841 1.0063367e-38
-0.071825244 0.20506695 0.44569024 1.0063367e-38
-0.0633495 0.2034872 0.44455719 1.0063367e-38
-0.059852343 0.20817608 0.44543439 1.0063367e-38
-0.070001759 0.21529172 0.44996578 1.0063367e-38
-0.067870013 0.21492445 0.44392672 1.0063367e-38
-0.057925131 0.21457659 0.44398919 1.0063367e-38
-0.065674305 0.22551182 0.44370562 1.0063367e-38
-0.056286197 0.22321336 0.44462198 1.0063367e-38
-0.065095775 0.23516391 0.44412151 1.0063367e-38
-0.055248991 0.23503029 0.44602999 1.0063367e-38
-0.065852955 0.24509767 0.44539434 1.0063367e-38
-0.05533167 0.24473816 0.44558489 1.0063367e-38
-0.066962779 0.25484151 0.44524908 1.0063367e-38
-0.056060709 0.2548646 0.44456005 1.0063367e-38
-0.068147898 0.26467726 0.44503054 1.0063367e-38
-0.05800695 0.26464891 0.44408357 1.0063367e-38
-0.071108669 0.27578467 0.44094309 1.0063367e-38
-0.064240098 0.2747162 0.44623962 1.0063367e-38
-0.059678197 0.27206764 0.44128841 1.0063367e-38
-0.070246711 0.28355628 0.44069034 1.0063367e-38
-0.064551212 0.28376713 0.44273758 1.0063367e-38
-0.068215273 0.29016387 0.44064647 1.0063367e-38
-0.09094166 0.16157907 0.45019019 1.0063367e-38
-0.086063489 0.16737676 0.45184678 1.0063367e-38
-0.084157951 0.17451338 0.45292825 1.0063367e-38
-0.077928841 0.17690288 0.45341766 1.0063367e-38
-0.082586527 0.18418932 0.45252651 1.0063367e-38
-0.074365504 0.18562865 0.4558661 1.0063367e-38
-0.081049316 0.19121043 0.45123917 1.0063367e-38
-0.076897621 0.19525453 0.45438623 1.0063367e-38
-0.067726195 0.19476241 0.45484108 1.0063367e-38
-0.074098594 0.20379303 0.45428091 1.0063367e-38
-0.063477874 0.2049436 0.45497274 1.0063367e-38
-0.071624309 0.21292154 0.4541603 1.0063367e-38
-0.063156337 0.21520317 0.45695192 1.0063367e-38
-0.059253659 0.21654722 0.45269302 1.0063367e-38
-0.066989593 0.22441074 0.4562864 1.0063367e-38
-0.058294632 0.22586644 0.45518547 1.0063367e-38
-0.064398512 0.23564944 0.45605022 1.0063367e-38
-0.057271123 0.23630428 0.45470342 1.0063367e-38
-0.064476594 0.24725887 0.45367631 1.0063367e-38
-0.057979751 0.24616568 0.45510536 1.0063367e-38
-0.063178651 0.25665659 0.45274132 1.0063367e-38
-0.057989236 0.25349429 0.45394644 1.0063367e-38
-0.063079759 0.26399651 0.45125046 1.0063367e-38
-0.059507065 0.26286465 0.45290512 1.0063367e-38
-0.061925314 0.27333963 0.45017308 1.0063367e-38
-0.07070744 0.19435668 0.46015161 1.0063367e-38
-0.06651599 0.2046027 0.4608143 1.0063367e-38
-0.064377189 0.21333151 0.46140665 9.971532e-39
-0.060826629 0.22324985 0.46140274 1.0063367e-38
-0.059080832 0.23432818 0.46068549 1.0063367e-38
-0.058327205 0.24084939 0.46031374 1.0063367e-38
