# .PCD v0.7 - Point Cloud Data file format
VERSION 0.7
FIELDS x y z rgb
SIZE 4 4 4 4
TYPE F F F F
COUNT 1 1 1 1
WIDTH 985
HEIGHT 1
VIEWPOINT 0 0 0 1 0 0 0
POINTS 985
DATA ascii
0.31606451 -0.037418716 0.95800006 1.7885948e-38
0.31791782 -0.037418716 0.95800006 1.8254366e-38
0.32711455 -0.038278017 0.98000002 1.770479e-38
0.31121701 -0.036207877 0.92700005 1.6498688e-38
0.31301036 -0.036207877 0.92700005 1.3808108e-38
0.31004941 -0.035661053 0.91300005 9.8530676e-39
0.31181568 -0.035661053 0.91300005 9.5004813e-39
0.31358194 -0.035661053 0.91300005 1.198831e-38
0.31362125 -0.035465755 0.90800005 1.2999936e-38
0.31364116 -0.035270456 0.90300006 1.2724072e-38
0.31364179 -0.035075162 0.89800006 1.2723356e-38
0.31467661 -0.034997046 0.89600003 1.2723356e-38
0.31641001 -0.034997046 0.89600003 1.2723354e-38
0.31743327 -0.034918927 0.89400005 1.2723713e-38
0.31916279 -0.034918927 0.89400005 1.2631877e-38
0.3208923 -0.034918927 0.89400005 1.2447848e-38
0.32262179 -0.034918927 0.89400005 1.2540399e-38
0.32435131 -0.034918927 0.89400005 1.272407e-38
0.32608083 -0.034918927 0.89400005 1.2815547e-38
0.32781035 -0.034918927 0.89400005 1.2723353e-38
0.32953987 -0.034918927 0.89400005 1.2631519e-38
0.33126938 -0.034918927 0.89400005 1.2539323e-38
0.33188146 -0.034801748 0.89100003 1.2447485e-38
0.3336052 -0.034801748 0.89100003 1.2447127e-38
0.33532891 -0.034801748 0.89100003 1.2538606e-38
0.33629605 -0.034723632 0.88900006 1.2538603e-38
0.33801588 -0.034723632 0.88900006 1.2538599e-38
0.33973572 -0.034723632 0.88900006 1.2538603e-38
0.34145558 -0.034723632 0.88900006 1.2538248e-38
0.34317541 -0.034723632 0.88900006 1.2446773e-38
0.34489527 -0.034723632 0.88900006 1.2446774e-38
0.34583533 -0.034645509 0.88700002 1.2538604e-38
0.34755129 -0.034645509 0.88700002 1.2447122e-38
0.34926727 -0.034645509 0.88700002 1.2446763e-38
0.35098323 -0.034645509 0.88700002 1.2354928e-38
0.35269922 -0.034645509 0.88700002 1.2262729e-38
0.35441518 -0.034645509 0.88700002 1.2170531e-38
0.35613117 -0.034645509 0.88700002 1.20787e-38
0.35784712 -0.034645509 0.88700002 1.1986509e-38
0.35956311 -0.034645509 0.88700002 1.1894675e-38
0.3612791 -0.034645509 0.88700002 1.1986871e-38
0.36299506 -0.034645509 0.88700002 1.2078707e-38
0.36471105 -0.034645509 0.88700002 1.2170185e-38
0.366427 -0.034645509 0.88700002 1.2262022e-38
0.36689785 -0.034528334 0.88400006 1.2354219e-38
0.368608 -0.034528334 0.88400006 1.2446054e-38
0.37031817 -0.034528334 0.88400006 1.2354576e-38
0.37202835 -0.034528334 0.88400006 1.2354928e-38
0.37373853 -0.034528334 0.88400006 1.2354925e-38
0.3754487 -0.034528334 0.88400006 1.2354932e-38
0.37630555 -0.034450218 0.88200003 1.2354935e-38
0.37801185 -0.034450218 0.88200003 1.2354933e-38
0.37971815 -0.034450218 0.88200003 1.235493e-38
0.38055956 -0.034372095 0.88000005 1.2354572e-38
0.38226199 -0.034372095 0.88000005 1.235457e-38
0.38396442 -0.034372095 0.88000005 1.2354568e-38
0.38566685 -0.034372095 0.88000005 1.2354569e-38
0.3873693 -0.034372095 0.88000005 1.2354572e-38
0.38907173 -0.034372095 0.88000005 1.2262738e-38
0.39077416 -0.034372095 0.88000005 1.2262738e-38
0.39247659 -0.034372095 0.88000005 1.2170542e-38
0.39417902 -0.034372095 0.88000005 1.2078705e-38
0.39588144 -0.034372095 0.88000005 1.1986868e-38
0.3975839 -0.034372095 0.88000005 1.2078345e-38
0.39837885 -0.034293979 0.87800002 1.2078346e-38
0.4000774 -0.034293979 0.87800002 1.2170185e-38
0.40177599 -0.034293979 0.87800002 1.2262022e-38
0.40347454 -0.034293979 0.87800002 1.2261664e-38
0.40517309 -0.034293979 0.87800002 1.2261663e-38
0.40687168 -0.034293979 0.87800002 1.2353498e-38
0.40857023 -0.034293979 0.87800002 1.2537165e-38
0.41026878 -0.034293979 0.87800002 1.253752e-38
0.41196737 -0.034293979 0.87800002 1.2353494e-38
0.41366592 -0.034293979 0.87800002 1.2261306e-38
0.41536447 -0.034293979 0.87800002 1.2169827e-38
0.41706306 -0.034293979 0.87800002 1.2353496e-38
0.41876161 -0.034293979 0.87800002 1.244569e-38
0.42046016 -0.034293979 0.87800002 1.2078348e-38
0.42071629 -0.0341768 0.87500006 1.1711003e-38
0.4238573 -0.034293979 0.87800002 1.1895031e-38
0.42555586 -0.034293979 0.87800002 1.2078346e-38
0.42725444 -0.034293979 0.87800002 1.2170185e-38
0.42895299 -0.034293979 0.87800002 1.2168746e-38
0.42918009 -0.0341768 0.87500006 1.2353135e-38
0.43087286 -0.0341768 0.87500006 1.2821685e-38
0.4325656 -0.0341768 0.87500006 1.5217336e-38
0.43326578 -0.034098681 0.87300003 1.7056199e-38
0.43495467 -0.034098681 0.87300003 1.6872169e-38
0.43564323 -0.034020565 0.87100005 1.6779976e-38
0.31682748 -0.03836029 1.033 1.7056207e-38
0.3188259 -0.03836029 1.033 1.7979598e-38
0.31989262 -0.038248882 1.0300001 1.853169e-38
0.32188526 -0.038248882 1.0300001 1.8439493e-38
0.32387787 -0.038248882 1.0300001 1.8439483e-38
0.31258255 -0.036689222 0.98800004 1.8347283e-38
0.31449392 -0.036689222 0.98800004 1.8346928e-38
0.31544453 -0.036577813 0.98500007 1.8254735e-38
0.31477267 -0.036280736 0.97700006 1.8162538e-38
0.31406981 -0.035983659 0.96900004 1.7978507e-38
0.31398809 -0.03576085 0.96300006 1.7885952e-38
0.31421119 -0.035575178 0.95800006 1.7794114e-38
0.31606451 -0.035575178 0.95800006 1.7886307e-38
0.31791782 -0.035575178 0.95800006 1.8254363e-38
0.32711455 -0.036392141 0.98000002 1.7425329e-38
0.31121701 -0.034423996 0.92700005 1.5390907e-38
0.31301036 -0.034423996 0.92700005 1.3165233e-38
0.31412455 -0.034349725 0.92500007 1.0868619e-38
0.31318179 -0.034052648 0.91700006 1.0698289e-38
0.3149558 -0.034052648 0.91700006 1.2173064e-38
0.31672981 -0.034052648 0.91700006 1.2816267e-38
0.31433585 -0.033607032 0.90500003 1.2723713e-38
0.31468958 -0.03345849 0.90100002 1.2723357e-38
0.31537902 -0.033347085 0.89800006 1.2815191e-38
0.31641001 -0.033272814 0.89600003 1.281519e-38
0.3181434 -0.033272814 0.89600003 1.2815548e-38
0.31987679 -0.033272814 0.89600003 1.2723713e-38
0.32161018 -0.033272814 0.89600003 1.2539682e-38
0.32334355 -0.033272814 0.89600003 1.2631872e-38
0.32507694 -0.033272814 0.89600003 1.2631873e-38
0.32681033 -0.033272814 0.89600003 1.2723712e-38
0.32854372 -0.033272814 0.89600003 1.2723354e-38
0.33027712 -0.033272814 0.89600003 1.2631522e-38
0.33126938 -0.033198547 0.89400005 1.2539325e-38
0.3329989 -0.033198547 0.89400005 1.2539319e-38
0.3336052 -0.033087142 0.89100003 1.2538962e-38
0.33532891 -0.033087142 0.89100003 1.2538964e-38
0.33705261 -0.033087142 0.89100003 1.2630436e-38
0.33801588 -0.033012871 0.88900006 1.2538592e-38
0.33973572 -0.033012871 0.88900006 1.2446762e-38
0.34222376 -0.033087142 0.89100003 1.2446767e-38
0.34394747 -0.033087142 0.89100003 1.2447127e-38
0.34567118 -0.033087142 0.89100003 1.2538964e-38
0.34661511 -0.033012871 0.88900006 1.2630797e-38
0.34833494 -0.033012871 0.88900006 1.25386e-38
0.3500548 -0.033012871 0.88900006 1.2538241e-38
0.35177463 -0.033012871 0.88900006 1.2446766e-38
0.35269922 -0.0329386 0.88700002 1.2354565e-38
0.35441518 -0.0329386 0.88700002 1.2262366e-38
0.35613117 -0.0329386 0.88700002 1.2170178e-38
0.35784712 -0.0329386 0.88700002 1.2078705e-38
0.35956311 -0.0329386 0.88700002 1.2078707e-38
0.3612791 -0.0329386 0.88700002 1.2170902e-38
0.36299506 -0.0329386 0.88700002 1.2170902e-38
0.36471105 -0.0329386 0.88700002 1.2262738e-38
0.366427 -0.0329386 0.88700002 1.2446051e-38
0.36814299 -0.0329386 0.88700002 1.2537888e-38
0.36985895 -0.0329386 0.88700002 1.2630082e-38
0.37157494 -0.0329386 0.88700002 1.2538246e-38
0.3732909 -0.0329386 0.88700002 1.2446406e-38
0.37500688 -0.0329386 0.88700002 1.2446763e-38
0.3754487 -0.032827199 0.88400006 1.2446765e-38
0.37715888 -0.032827199 0.88400006 1.235493e-38
0.37886903 -0.032827199 0.88400006 1.235493e-38
0.3805792 -0.032827199 0.88400006 1.2446407e-38
0.38142446 -0.032752927 0.88200003 1.2446406e-38
0.38313076 -0.032752927 0.88200003 1.235457e-38
0.38483706 -0.032752927 0.88200003 1.2262735e-38
0.38566685 -0.032678656 0.88000005 1.2262736e-38
0.3873693 -0.032678656 0.88000005 1.2262739e-38
0.38907173 -0.032678656 0.88000005 1.2262739e-38
0.39166227 -0.032752927 0.88200003 1.2262738e-38
0.39247659 -0.032678656 0.88000005 1.2170542e-38
0.39417902 -0.032678656 0.88000005 1.2078346e-38
0.39588144 -0.032678656 0.88000005 1.198687e-38
0.3975839 -0.032678656 0.88000005 1.1986508e-38
0.39928633 -0.032678656 0.88000005 1.2078346e-38
0.40098876 -0.032678656 0.88000005 1.2170545e-38
0.40269119 -0.032678656 0.88000005 1.226238e-38
0.40347454 -0.032604389 0.87800002 1.2170545e-38
0.40517309 -0.032604389 0.87800002 1.2170543e-38
0.40687168 -0.032604389 0.87800002 1.2262019e-38
0.40857023 -0.032604389 0.87800002 1.2353851e-38
0.41026878 -0.032604389 0.87800002 1.2354207e-38
0.41196737 -0.032604389 0.87800002 1.2262017e-38
0.41366592 -0.032604389 0.87800002 1.2262024e-38
0.41536447 -0.032604389 0.87800002 1.2170545e-38
0.41706306 -0.032604389 0.87800002 1.2262017e-38
0.41876161 -0.032604389 0.87800002 1.2353496e-38
0.42046016 -0.032604389 0.87800002 1.2169826e-38
0.42215875 -0.032604389 0.87800002 1.1985792e-38
0.4238573 -0.032604389 0.87800002 1.2078341e-38
0.42555586 -0.032604389 0.87800002 1.2170183e-38
0.42725444 -0.032604389 0.87800002 1.2077636e-38
0.42895299 -0.032604389 0.87800002 1.2076554e-38
0.43065155 -0.032604389 0.87800002 1.3185756e-38
0.43087286 -0.03249298 0.87500006 1.4388272e-38
0.43404868 -0.032604389 0.87800002 1.5768351e-38
0.43425837 -0.03249298 0.87500006 1.6870731e-38
0.43495467 -0.032418713 0.87300003 1.677961e-38
0.43564323 -0.032344446 0.87100005 1.6687778e-38
0.31590739 -0.036266789 1.0300001 1.6965086e-38
0.3179 -0.036266789 1.0300001 1.7887761e-38
0.31865031 -0.036125947 1.026 1.8531327e-38
0.3206352 -0.036125947 1.026 1.843949e-38
0.3207334 -0.035914682 1.0200001 1.8439483e-38
0.31258255 -0.034787949 0.98800004 1.8347286e-38
0.31449392 -0.034787949 0.98800004 1.8255093e-38
0.31384331 -0.034506265 0.98000002 1.816254e-38
0.31380609 -0.034295 0.97400004 1.8070345e-38
0.31406981 -0.034118954 0.96900004 1.7978149e-38
0.31496623 -0.03401332 0.96600002 1.7885954e-38
0.31519511 -0.033837266 0.96100003 1.7793758e-38
0.32068339 -0.034224581 0.97200006 1.7886311e-38
0.3225638 -0.034224581 0.97200006 1.8162526e-38
0.32711455 -0.034506265 0.98000002 1.6871789e-38
0.31121701 -0.032640111 0.92700005 1.4007986e-38
0.31301036 -0.032640111 0.92700005 1.2151477e-38
0.31412455 -0.032569692 0.92500007 1.1513287e-38
0.31591403 -0.032569692 0.92500007 1.1619884e-38
0.3149558 -0.032288007 0.91700006 1.2266339e-38
0.31431204 -0.032041531 0.91000003 1.2724435e-38
0.31433585 -0.031865481 0.90500003 1.2815909e-38
0.31468958 -0.031724639 0.90100002 1.2815551e-38
0.31537902 -0.031619005 0.89800006 1.281555e-38
0.31641001 -0.031548586 0.89600003 1.2815548e-38
0.3181434 -0.031548586 0.89600003 1.2815548e-38
0.31987679 -0.031548586 0.89600003 1.2724073e-38
0.32161018 -0.031548586 0.89600003 1.2724072e-38
0.32334355 -0.031548586 0.89600003 1.2632233e-38
0.32507694 -0.031548586 0.89600003 1.2631875e-38
0.32681033 -0.031548586 0.89600003 1.2723353e-38
0.32854372 -0.031548586 0.89600003 1.2723357e-38
0.33027712 -0.031548586 0.89600003 1.2723003e-38
0.33201048 -0.031548586 0.89600003 1.2631522e-38
0.33374387 -0.031548586 0.89600003 1.2539676e-38
0.33472842 -0.031478163 0.89400005 1.2539322e-38
0.33645794 -0.031478163 0.89400005 1.2631163e-38
0.33818746 -0.031478163 0.89400005 1.26308e-38
0.33877632 -0.031372532 0.89100003 1.2538957e-38
0.34050003 -0.031372532 0.89100003 1.2354928e-38
0.34222376 -0.031372532 0.89100003 1.2447126e-38
0.34394747 -0.031372532 0.89100003 1.2447126e-38
0.34567118 -0.031372532 0.89100003 1.2630797e-38
0.34739488 -0.031372532 0.89100003 1.2722633e-38
0.34833494 -0.031302113 0.88900006 1.2630796e-38
0.35084233 -0.031372532 0.89100003 1.2538964e-38
0.35177463 -0.031302113 0.88900006 1.2446776e-38
0.35349447 -0.031302113 0.88900006 1.2354573e-38
0.35521433 -0.031302113 0.88900006 1.2262373e-38
0.35693416 -0.031302113 0.88900006 1.2170539e-38
0.35865402 -0.031302113 0.88900006 1.2170899e-38
0.36037385 -0.031302113 0.88900006 1.2171257e-38
0.36209369 -0.031302113 0.88900006 1.2263092e-38
0.36299506 -0.031231692 0.88700002 1.2263094e-38
0.36553338 -0.031302113 0.88900006 1.235493e-38
0.366427 -0.031231692 0.88700002 1.2538244e-38
0.36814299 -0.031231692 0.88700002 1.2721559e-38
0.36985895 -0.031231692 0.88700002 1.2813753e-38
0.37157494 -0.031231692 0.88700002 1.2630441e-38
0.3732909 -0.031231692 0.88700002 1.2538603e-38
0.37500688 -0.031231692 0.88700002 1.2538243e-38
0.37672287 -0.031231692 0.88700002 1.2446409e-38
0.37715888 -0.03112606 0.88400006 1.2446409e-38
0.37886903 -0.03112606 0.88400006 1.2354573e-38
0.3805792 -0.03112606 0.88400006 1.2446409e-38
0.38228938 -0.03112606 0.88400006 1.2446406e-38
0.38313076 -0.031055639 0.88200003 1.2354569e-38
0.38483706 -0.031055639 0.88200003 1.2263092e-38
0.38654336 -0.031055639 0.88200003 1.2171257e-38
0.38824967 -0.031055639 0.88200003 1.2171259e-38
0.38995597 -0.031055639 0.88200003 1.2263095e-38
0.39166227 -0.031055639 0.88200003 1.2263095e-38
0.39336857 -0.031055639 0.88200003 1.2262736e-38
0.39507487 -0.031055639 0.88200003 1.2078348e-38
0.39678118 -0.031055639 0.88200003 1.1894677e-38
0.39848748 -0.031055639 0.88200003 1.198687e-38
0.39928633 -0.030985218 0.88000005 1.2078708e-38
0.40098876 -0.030985218 0.88000005 1.2170908e-38
0.40269119 -0.030985218 0.88000005 1.2262742e-38
0.40439361 -0.030985218 0.88000005 1.2171261e-38
0.40609604 -0.030985218 0.88000005 1.2079065e-38
0.40779847 -0.030985218 0.88000005 1.2170901e-38
0.40950093 -0.030985218 0.88000005 1.2262733e-38
0.41120335 -0.030985218 0.88000005 1.2262732e-38
0.41290578 -0.030985218 0.88000005 1.2170901e-38
0.41460821 -0.030985218 0.88000005 1.2170904e-38
0.41631064 -0.030985218 0.88000005 1.2170543e-38
0.41801307 -0.030985218 0.88000005 1.2170542e-38
0.41876161 -0.030914798 0.87800002 1.2170185e-38
0.42141795 -0.030985218 0.88000005 1.2170186e-38
0.42215875 -0.030914798 0.87800002 1.2169825e-38
0.42482281 -0.030985218 0.88000005 1.2169822e-38
0.42652524 -0.030985218 0.88000005 1.2169825e-38
0.42822766 -0.030985218 0.88000005 1.198544e-38
0.42993012 -0.030985218 0.88000005 1.1987242e-38
0.43163255 -0.030985218 0.88000005 1.4014809e-38
0.43235013 -0.030914798 0.87800002 1.5767607e-38
0.43404868 -0.030914798 0.87800002 1.6320797e-38
0.43574724 -0.030914798 0.87800002 1.6687417e-38
0.31590739 -0.034284696 1.0300001 1.6965442e-38
0.31666544 -0.03415155 1.026 1.7979594e-38
0.31865031 -0.03415155 1.026 1.8622803e-38
0.31876013 -0.033951834 1.0200001 1.843913e-38
0.3207334 -0.033951834 1.0200001 1.834729e-38
0.31258255 -0.03288668 0.98800004 1.8346929e-38
0.31449392 -0.03288668 0.98800004 1.8255093e-38
0.31384331 -0.032620389 0.98000002 1.8070705e-38
0.31477267 -0.032520533 0.97700006 1.7978151e-38
0.31504214 -0.032354102 0.97200006 1.797779e-38
0.3159444 -0.032254245 0.96900004 1.7885954e-38
0.31585109 -0.032054529 0.96300006 1.7702283e-38
0.31969362 -0.032254245 0.96900004 1.7795196e-38
0.31028515 -0.031122515 0.93500006 1.8069969e-38
0.312094 -0.031122515 0.93500006 1.6222105e-38
0.31121701 -0.030856228 0.92700005 1.2162654e-38
0.31301036 -0.030856228 0.92700005 1.0687509e-38
0.31412455 -0.030789655 0.92500007 1.1615192e-38
0.31591403 -0.030789655 0.92500007 1.2265249e-38
0.31426889 -0.030456794 0.91500002 1.2633321e-38
0.31534824 -0.030390222 0.91300005 1.2816629e-38
0.31433585 -0.030123932 0.90500003 1.281591e-38
0.31538811 -0.030057359 0.90300006 1.2815909e-38
0.31643263 -0.029990789 0.90100002 1.2816267e-38
0.31711629 -0.02989093 0.89800006 1.2816266e-38
0.31885353 -0.02989093 0.89800006 1.2724072e-38
0.31987679 -0.029824357 0.89600003 1.2724432e-38
0.32232806 -0.02989093 0.89800006 1.2724432e-38
0.3240653 -0.02989093 0.89800006 1.2724432e-38
0.32580256 -0.02989093 0.89800006 1.2724072e-38
0.32753983 -0.02989093 0.89800006 1.2723712e-38
0.32927707 -0.02989093 0.89800006 1.2814834e-38
0.33101434 -0.02989093 0.89800006 1.2723005e-38
0.33275157 -0.02989093 0.89800006 1.2723357e-38
0.33448884 -0.02989093 0.89800006 1.2631512e-38
0.33547726 -0.029824357 0.89600003 1.2631157e-38
0.33721066 -0.029824357 0.89600003 1.2723e-38
0.33894402 -0.029824357 0.89600003 1.2722638e-38
0.33991697 -0.029757785 0.89400005 1.2630797e-38
0.34164649 -0.029757785 0.89400005 1.2446766e-38
0.34337601 -0.029757785 0.89400005 1.2447125e-38
0.34510553 -0.029757785 0.89400005 1.2447483e-38
0.34683505 -0.029757785 0.89400005 1.253932e-38
0.34739488 -0.029657926 0.89100003 1.2631156e-38
0.34911859 -0.029657926 0.89100003 1.2631156e-38
0.35084233 -0.029657926 0.89100003 1.2631163e-38
0.35256603 -0.029657926 0.89100003 1.2538974e-38
0.35349447 -0.029591355 0.88900006 1.2446774e-38
0.35521433 -0.029591355 0.88900006 1.2354573e-38
0.35693416 -0.029591355 0.88900006 1.2354572e-38
0.35865402 -0.029591355 0.88900006 1.2263094e-38
0.36037385 -0.029591355 0.88900006 1.2263449e-38
0.36209369 -0.029591355 0.88900006 1.2354926e-38
0.36381355 -0.029591355 0.88900006 1.2354928e-38
0.36553338 -0.029591355 0.88900006 1.2446765e-38
0.36725324 -0.029591355 0.88900006 1.2446409e-38
0.36814299 -0.029524783 0.88700002 1.2630081e-38
0.36985895 -0.029524783 0.88700002 1.2721918e-38
0.37157494 -0.029524783 0.88700002 1.2722277e-38
0.3732909 -0.029524783 0.88700002 1.263044e-38
0.37500688 -0.029524783 0.88700002 1.2538246e-38
0.37672287 -0.029524783 0.88700002 1.2538246e-38
0.37843883 -0.029524783 0.88700002 1.2446769e-38
0.38015482 -0.029524783 0.88700002 1.2354933e-38
0.38187078 -0.029524783 0.88700002 1.244641e-38
0.38358676 -0.029524783 0.88700002 1.2446765e-38
0.38399956 -0.029424924 0.88400006 1.2355285e-38
0.38570973 -0.029424924 0.88400006 1.2263449e-38
0.38741988 -0.029424924 0.88400006 1.2171615e-38
0.38913006 -0.029424924 0.88400006 1.2263092e-38
0.39216664 -0.029524783 0.88700002 1.235457e-38
0.39255041 -0.029424924 0.88400006 1.2354212e-38
0.39426059 -0.029424924 0.88400006 1.2262019e-38
0.39507487 -0.029358352 0.88200003 1.2170185e-38
0.39678118 -0.029358352 0.88200003 1.2169826e-38
0.39848748 -0.029358352 0.88200003 1.2170185e-38
0.40019378 -0.029358352 0.88200003 1.2262382e-38
0.40190008 -0.029358352 0.88200003 1.2262746e-38
0.40360638 -0.029358352 0.88200003 1.2262743e-38
0.40439361 -0.029291779 0.88000005 1.2170901e-38
0.40609604 -0.029291779 0.88000005 1.2079064e-38
0.40779847 -0.029291779 0.88000005 1.2170899e-38
0.40950093 -0.029291779 0.88000005 1.2263094e-38
0.41120335 -0.029291779 0.88000005 1.2263094e-38
0.41290578 -0.029291779 0.88000005 1.2263095e-38
0.41460821 -0.029291779 0.88000005 1.2170902e-38
0.41631064 -0.029291779 0.88000005 1.2170543e-38
0.41801307 -0.029291779 0.88000005 1.2170901e-38
0.41971552 -0.029291779 0.88000005 1.2078709e-38
0.42141795 -0.029291779 0.88000005 1.2170187e-38
0.42408201 -0.029358352 0.88200003 1.2169469e-38
0.42578831 -0.029358352 0.88200003 1.2261661e-38
0.42749462 -0.029358352 0.88200003 1.2353497e-38
0.42920092 -0.029358352 0.88200003 1.216875e-38
0.43188435 -0.029424924 0.88400006 1.216985e-38
0.43261352 -0.029358352 0.88200003 1.4386121e-38
0.43530467 -0.029424924 0.88400006 1.6323291e-38
0.43602613 -0.029358352 0.88200003 1.6321153e-38
0.31590739 -0.032302603 1.0300001 1.6965442e-38
0.31666544 -0.032177154 1.026 1.7979948e-38
0.31865031 -0.032177154 1.026 1.8623161e-38
0.31969768 -0.032083072 1.023 1.8439133e-38
0.32167676 -0.032083072 1.023 1.8346935e-38
0.32365584 -0.032083072 1.023 1.834693e-38
0.31449392 -0.030985409 0.98800004 1.8254736e-38
0.31480405 -0.030828599 0.98300004 1.8070705e-38
0.31477267 -0.030640429 0.97700006 1.7978151e-38
0.31504214 -0.03048362 0.97200006 1.797779e-38
0.31692255 -0.03048362 0.97200006 1.7885954e-38
0.31880298 -0.03048362 0.97200006 1.7794834e-38
0.30847633 -0.029323235 0.93500006 1.7795912e-38
0.31028515 -0.029323235 0.93500006 1.7793018e-38
0.312094 -0.029323235 0.93500006 1.5572054e-38
0.31222418 -0.029166428 0.93000007 1.0959805e-38
0.31301036 -0.029072342 0.92700005 9.6751812e-39
0.31412455 -0.029009618 0.92500007 1.1708839e-38
0.31420636 -0.028852809 0.92000002 1.2816618e-38
0.31426889 -0.028696002 0.91500002 1.2908818e-38
0.31534824 -0.028633278 0.91300005 1.3000296e-38
0.31537786 -0.028476467 0.90800005 1.2908101e-38
0.31608665 -0.028382383 0.90500003 1.2908103e-38
0.31713504 -0.028319659 0.90300006 1.2908103e-38
0.31817567 -0.028256936 0.90100002 1.2816267e-38
0.31885353 -0.028162852 0.89800006 1.2724432e-38
0.32059079 -0.028162852 0.89800006 1.2724435e-38
0.32340485 -0.028256936 0.90100002 1.2724795e-38
0.3240653 -0.028162852 0.89800006 1.2816274e-38
0.32580256 -0.028162852 0.89800006 1.2815911e-38
0.32753983 -0.028162852 0.89800006 1.2815186e-38
0.32927707 -0.028162852 0.89800006 1.281483e-38
0.33101434 -0.028162852 0.89800006 1.2814835e-38
0.33275157 -0.028162852 0.89800006 1.2722997e-38
0.33448884 -0.028162852 0.89800006 1.2722991e-38
0.33622611 -0.028162852 0.89800006 1.2722993e-38
0.33721066 -0.028100127 0.89600003 1.2814474e-38
0.33894402 -0.028100127 0.89600003 1.2814472e-38
0.34067741 -0.028100127 0.89600003 1.2631157e-38
0.3424108 -0.028100127 0.89600003 1.2447844e-38
0.3441442 -0.028100127 0.89600003 1.2447485e-38
0.34587759 -0.028100127 0.89600003 1.2447486e-38
0.34683505 -0.028037403 0.89400005 1.2539323e-38
0.34856457 -0.028037403 0.89400005 1.2539322e-38
0.35029408 -0.028037403 0.89400005 1.2631157e-38
0.3520236 -0.028037403 0.89400005 1.2631161e-38
0.35256603 -0.027943319 0.89100003 1.2631166e-38
0.35428974 -0.027943319 0.89100003 1.2538969e-38
0.35521433 -0.027880596 0.88900006 1.2538964e-38
0.35773718 -0.027943319 0.89100003 1.2446769e-38
0.35946089 -0.027943319 0.89100003 1.2446767e-38
0.36037385 -0.027880596 0.88900006 1.2354929e-38
0.36209369 -0.027880596 0.88900006 1.2446762e-38
0.36381355 -0.027880596 0.88900006 1.2446763e-38
0.36553338 -0.027880596 0.88900006 1.2446765e-38
0.36725324 -0.027880596 0.88900006 1.2446766e-38
0.36897308 -0.027880596 0.88900006 1.2538244e-38
0.37069291 -0.027880596 0.88900006 1.2630438e-38
0.37241277 -0.027880596 0.88900006 1.2630438e-38
0.3741326 -0.027880596 0.88900006 1.2630437e-38
0.37585244 -0.027880596 0.88900006 1.2630437e-38
0.3775723 -0.027880596 0.88900006 1.2538603e-38
0.37843883 -0.027817871 0.88700002 1.244677e-38
0.38101199 -0.027880596 0.88900006 1.2446772e-38
0.38273183 -0.027880596 0.88900006 1.2446772e-38
0.38358676 -0.027817871 0.88700002 1.2447127e-38
0.38530272 -0.027817871 0.88700002 1.2355648e-38
0.38701871 -0.027817871 0.88700002 1.2263811e-38
0.3887347 -0.027817871 0.88700002 1.2263452e-38
0.39045066 -0.027817871 0.88700002 1.2263095e-38
0.39216664 -0.027817871 0.88700002 1.2446407e-38
0.3938826 -0.027817871 0.88700002 1.2354213e-38
0.39559859 -0.027817871 0.88700002 1.2262379e-38
0.39731455 -0.027817871 0.88700002 1.226238e-38
0.39903054 -0.027817871 0.88700002 1.226202e-38
0.40074649 -0.027817871 0.88700002 1.2353854e-38
0.40246248 -0.027817871 0.88700002 1.244605e-38
0.40417847 -0.027817871 0.88700002 1.2354217e-38
0.40452161 -0.027723787 0.88400006 1.2262736e-38
0.40623176 -0.027723787 0.88400006 1.2262732e-38
0.40794194 -0.027723787 0.88400006 1.2170898e-38
0.40965211 -0.027723787 0.88400006 1.2170899e-38
0.41136229 -0.027723787 0.88400006 1.2170901e-38
0.41307247 -0.027723787 0.88400006 1.2262738e-38
0.41478261 -0.027723787 0.88400006 1.2262738e-38
0.41649279 -0.027723787 0.88400006 1.2262738e-38
0.41820297 -0.027723787 0.88400006 1.2170902e-38
0.41991314 -0.027723787 0.88400006 1.2079425e-38
0.42162332 -0.027723787 0.88400006 1.1986872e-38
0.4233335 -0.027723787 0.88400006 1.2078351e-38
0.42504364 -0.027723787 0.88400006 1.2169827e-38
0.42675382 -0.027723787 0.88400006 1.2353857e-38
0.428464 -0.027723787 0.88400006 1.2444611e-38
0.43017417 -0.027723787 0.88400006 1.2444607e-38
0.43188435 -0.027723787 0.88400006 1.2544016e-38
0.4335945 -0.027723787 0.88400006 1.4848192e-38
0.43530467 -0.027723787 0.88400006 1.6596297e-38
0.43701485 -0.027723787 0.88400006 1.6504823e-38
0.3179 -0.030320508 1.0300001 1.7979227e-38
0.31865031 -0.030202759 1.026 1.8531323e-38
0.31969768 -0.030114448 1.023 1.8439133e-38
0.32167676 -0.030114448 1.023 1.8346935e-38
0.32365584 -0.030114448 1.023 1.8346932e-38
0.31194741 -0.028848639 0.98000002 1.8254736e-38
0.31384331 -0.028848639 0.98000002 1.8070346e-38
0.31477267 -0.028760327 0.97700006 1.7978151e-38
0.31569037 -0.028672015 0.97400004 1.7978149e-38
0.31757465 -0.028672015 0.97400004 1.8069985e-38
0.31945893 -0.028672015 0.97400004 1.8070701e-38
0.30748653 -0.027435644 0.93200004 1.7796625e-38
0.30928957 -0.027435644 0.93200004 1.7148719e-38
0.31109262 -0.027435644 0.93200004 1.4735453e-38
0.31121701 -0.027288457 0.92700005 1.0581314e-38
0.31233504 -0.027229583 0.92500007 9.7648699e-39
0.31310573 -0.027141271 0.92200005 1.2078349e-38
0.31318179 -0.026994083 0.91700006 1.3185037e-38
0.31426889 -0.026935209 0.91500002 1.318432e-38
0.31534824 -0.026876334 0.91300005 1.3183964e-38
0.31607252 -0.026788022 0.91000003 1.309213e-38
0.31713444 -0.026729146 0.90800005 1.3092131e-38
0.31783745 -0.026640834 0.90500003 1.3092133e-38
0.31888196 -0.02658196 0.90300006 1.299994e-38
0.32062888 -0.02658196 0.90300006 1.2815911e-38
0.3216618 -0.026523085 0.90100002 1.2724436e-38
0.32412273 -0.02658196 0.90300006 1.2816274e-38
0.32514793 -0.026523085 0.90100002 1.2815918e-38
0.32580256 -0.026434774 0.89800006 1.2815554e-38
0.32753983 -0.026434774 0.89800006 1.2815186e-38
0.32927707 -0.026434774 0.89800006 1.2906662e-38
0.33101434 -0.026434774 0.89800006 1.2814831e-38
0.3338632 -0.026523085 0.90100002 1.2814472e-38
0.33560628 -0.026523085 0.90100002 1.281483e-38
0.33622611 -0.026434774 0.89800006 1.2723353e-38
0.33796334 -0.026434774 0.89800006 1.2722993e-38
0.33970061 -0.026434774 0.89800006 1.2631159e-38
0.34143785 -0.026434774 0.89800006 1.2539683e-38
0.3424108 -0.026375897 0.89600003 1.2448564e-38
0.3441442 -0.026375897 0.89600003 1.2447845e-38
0.34587759 -0.026375897 0.89600003 1.2539323e-38
0.34761095 -0.026375897 0.89600003 1.2539326e-38
0.34934434 -0.026375897 0.89600003 1.2630801e-38
0.35029408 -0.026317023 0.89400005 1.2631159e-38
0.35281113 -0.026375897 0.89600003 1.2722638e-38
0.35375312 -0.026317023 0.89400005 1.2631164e-38
0.35627788 -0.026375897 0.89600003 1.2539327e-38
0.35721216 -0.026317023 0.89400005 1.2538967e-38
0.35894164 -0.026317023 0.89400005 1.2538607e-38
0.36067116 -0.026317023 0.89400005 1.244677e-38
0.36240068 -0.026317023 0.89400005 1.2446767e-38
0.3629083 -0.026228711 0.89100003 1.2446765e-38
0.36463201 -0.026228711 0.89100003 1.2446765e-38
0.36635575 -0.026228711 0.89100003 1.2446765e-38
0.36807945 -0.026228711 0.89100003 1.2538601e-38
0.36980316 -0.026228711 0.89100003 1.2538601e-38
0.37152687 -0.026228711 0.89100003 1.2630438e-38
0.37241277 -0.026169837 0.88900006 1.2814111e-38
0.37497431 -0.026228711 0.89100003 1.2813748e-38
0.37669802 -0.026228711 0.89100003 1.2722271e-38
0.37842172 -0.026228711 0.89100003 1.2538962e-38
0.38014543 -0.026228711 0.89100003 1.2447129e-38
0.38186917 -0.026228711 0.89100003 1.2447132e-38
0.38359287 -0.026228711 0.89100003 1.2446774e-38
0.38445166 -0.026169837 0.88900006 1.244677e-38
0.38617152 -0.026169837 0.88900006 1.2355292e-38
0.38789135 -0.026169837 0.88900006 1.2354933e-38
0.38961121 -0.026169837 0.88900006 1.2262738e-38
0.39133105 -0.026169837 0.88900006 1.2354573e-38
0.39305088 -0.026169837 0.88900006 1.2446409e-38
0.39477074 -0.026169837 0.88900006 1.2354573e-38
0.39649057 -0.026169837 0.88900006 1.2171262e-38
0.39731455 -0.026110962 0.88700002 1.2079427e-38
0.39993027 -0.026169837 0.88900006 1.2262738e-38
0.4016501 -0.026169837 0.88900006 1.2354213e-38
0.40246248 -0.026110962 0.88700002 1.2537524e-38
0.40417847 -0.026110962 0.88700002 1.2446047e-38
0.40589443 -0.026110962 0.88700002 1.2354209e-38
0.40761042 -0.026110962 0.88700002 1.2354565e-38
0.40932637 -0.026110962 0.88700002 1.2263091e-38
0.41104236 -0.026110962 0.88700002 1.2262735e-38
0.41136229 -0.02602265 0.88400006 1.2262379e-38
0.41307247 -0.02602265 0.88400006 1.2354217e-38
0.41619027 -0.026110962 0.88700002 1.2446051e-38
0.41790625 -0.026110962 0.88700002 1.2354573e-38
0.41962224 -0.026110962 0.88700002 1.2262738e-38
0.4213382 -0.026110962 0.88700002 1.2170902e-38
0.42305419 -0.026110962 0.88700002 1.2170543e-38
0.42477015 -0.026110962 0.88700002 1.2170185e-38
0.42648613 -0.026110962 0.88700002 1.2261661e-38
0.42820209 -0.026110962 0.88700002 1.2261303e-38
0.42991808 -0.026110962 0.88700002 1.2260937e-38
0.43163404 -0.026110962 0.88700002 1.3275785e-38
0.43335003 -0.026110962 0.88700002 1.4293205e-38
0.43506601 -0.026110962 0.88700002 1.5400301e-38
0.43678197 -0.026110962 0.88700002 1.6412994e-38
0.31666544 -0.028228363 1.026 1.7794836e-38
0.31865031 -0.028228363 1.026 1.8347289e-38
0.31876013 -0.028063284 1.0200001 1.8347292e-38
0.3207334 -0.028063284 1.0200001 1.8347292e-38
0.3227067 -0.028063284 1.0200001 1.8255096e-38
0.31099248 -0.026880223 0.97700006 1.8254736e-38
0.31288257 -0.026880223 0.97700006 1.8070705e-38
0.31477267 -0.026880223 0.97700006 1.8070704e-38
0.31569037 -0.026797686 0.97400004 1.8070704e-38
0.31757465 -0.026797686 0.97400004 1.8070705e-38
0.31945893 -0.026797686 0.97400004 1.8254732e-38
0.30748653 -0.025642136 0.93200004 1.7704424e-38
0.30928957 -0.025642136 0.93200004 1.6408273e-38
0.31109262 -0.025642136 0.93200004 1.3991395e-38
0.31121701 -0.025504574 0.92700005 1.0676693e-38
0.31233504 -0.025449546 0.92500007 1.005113e-38
0.31242657 -0.02531198 0.92000002 1.22649e-38
0.31318179 -0.025229443 0.91700006 1.3276521e-38
0.31426889 -0.025174417 0.91500002 1.3367995e-38
0.31534824 -0.02511939 0.91300005 1.3275801e-38
0.31607252 -0.025036851 0.91000003 1.3183965e-38
0.31713444 -0.024981825 0.90800005 1.309213e-38
0.31783745 -0.024899285 0.90500003 1.3183609e-38
0.31958824 -0.024899285 0.90500003 1.3091777e-38
0.32133904 -0.024899285 0.90500003 1.2908107e-38
0.32308984 -0.024899285 0.90500003 1.2816272e-38
0.32484064 -0.024899285 0.90500003 1.2816272e-38
0.32586968 -0.024844259 0.90300006 1.2816273e-38
0.3276166 -0.024844259 0.90300006 1.281591e-38
0.32936352 -0.024844259 0.90300006 1.2907383e-38
0.33111045 -0.024844259 0.90300006 1.2907383e-38
0.33285737 -0.024844259 0.90300006 1.2907027e-38
0.33460432 -0.024844259 0.90300006 1.2907027e-38
0.33635125 -0.024844259 0.90300006 1.2815194e-38
0.33734933 -0.024789235 0.90100002 1.2723356e-38
0.33909237 -0.024789235 0.90100002 1.2723354e-38
0.34083545 -0.024789235 0.90100002 1.2631519e-38
0.3425785 -0.024789235 0.90100002 1.2631522e-38
0.34317511 -0.024706695 0.89800006 1.2448208e-38
0.34491238 -0.024706695 0.89800006 1.2539682e-38
0.34664962 -0.024706695 0.89800006 1.2539327e-38
0.34838688 -0.024706695 0.89800006 1.2631167e-38
0.35012412 -0.024706695 0.89800006 1.2723e-38
0.35186139 -0.024706695 0.89800006 1.2722996e-38
0.35359865 -0.024706695 0.89800006 1.2814834e-38
0.35533589 -0.024706695 0.89800006 1.2630807e-38
0.35707316 -0.024706695 0.89800006 1.2538969e-38
0.35801128 -0.024651669 0.89600003 1.2538966e-38
0.35974467 -0.024651669 0.89600003 1.2538608e-38
0.36147806 -0.024651669 0.89600003 1.2538608e-38
0.36321142 -0.024651669 0.89600003 1.244677e-38
0.3641302 -0.024596643 0.89400005 1.2446767e-38
0.36585972 -0.024596643 0.89400005 1.2447127e-38
0.36758924 -0.024596643 0.89400005 1.2538964e-38
0.36931875 -0.024596643 0.89400005 1.2538606e-38
0.37104827 -0.024596643 0.89400005 1.26308e-38
0.37152687 -0.024514103 0.89100003 1.2630804e-38
0.37325057 -0.024514103 0.89100003 1.2814118e-38
0.37497431 -0.024514103 0.89100003 1.290559e-38
0.37796634 -0.024596643 0.89400005 1.2721917e-38
0.37969586 -0.024596643 0.89400005 1.2538604e-38
0.38014543 -0.024514103 0.89100003 1.2538963e-38
0.3831549 -0.024596643 0.89400005 1.2447129e-38
0.38359287 -0.024514103 0.89100003 1.2446772e-38
0.38531658 -0.024514103 0.89100003 1.2446769e-38
0.38704029 -0.024514103 0.89100003 1.2446769e-38
0.38789135 -0.024459079 0.88900006 1.2354935e-38
0.38961121 -0.024459079 0.88900006 1.2354576e-38
0.39133105 -0.024459079 0.88900006 1.2354577e-38
0.39393514 -0.024514103 0.89100003 1.2538248e-38
0.39477074 -0.024459079 0.88900006 1.244641e-38
0.39649057 -0.024459079 0.88900006 1.198759e-38
0.39821041 -0.024459079 0.88900006 1.1987947e-38
0.39993027 -0.024459079 0.88900006 1.2171259e-38
0.4016501 -0.024459079 0.88900006 1.2353854e-38
0.40336996 -0.024459079 0.88900006 1.2537525e-38
0.4050898 -0.024459079 0.88900006 1.2537884e-38
0.40680963 -0.024459079 0.88900006 1.2446047e-38
0.40852949 -0.024459079 0.88900006 1.2446403e-38
0.40932637 -0.024404053 0.88700002 1.235457e-38
0.41104236 -0.024404053 0.88700002 1.2354573e-38
0.41275832 -0.024404053 0.88700002 1.2262382e-38
0.41447431 -0.024404053 0.88700002 1.2446057e-38
0.41619027 -0.024404053 0.88700002 1.2537888e-38
0.41884854 -0.024459079 0.88900006 1.2446404e-38
0.42056838 -0.024459079 0.88900006 1.2262736e-38
0.42228824 -0.024459079 0.88900006 1.226274e-38
0.42400807 -0.024459079 0.88900006 1.2262379e-38
0.42572793 -0.024459079 0.88900006 1.2353853e-38
0.42648613 -0.024404053 0.88700002 1.2353489e-38
0.42820209 -0.024404053 0.88700002 1.2169096e-38
0.42991808 -0.024404053 0.88700002 1.2079071e-38
0.43163404 -0.024404053 0.88700002 1.4105211e-38
0.43335003 -0.024404053 0.88700002 1.5858008e-38
0.43506601 -0.024404053 0.88700002 1.5953099e-38
0.43776682 -0.024459079 0.88900006 1.6136766e-38
0.31573954 -0.0261772 1.023 1.7609368e-38
0.31678686 -0.026100434 1.0200001 1.8255092e-38
0.31876013 -0.026100434 1.0200001 1.8347289e-38
0.30909896 -0.025153654 0.98300004 1.834729e-38
0.31005153 -0.025076887 0.98000002 1.8255096e-38
0.31194741 -0.025076887 0.98000002 1.8162901e-38
0.31288257 -0.025000121 0.97700006 1.8162899e-38
0.31477267 -0.025000121 0.97700006 1.8070704e-38
0.31569037 -0.024923356 0.97400004 1.7978868e-38
0.31757465 -0.024923356 0.97400004 1.8071067e-38
0.31683505 -0.024718646 0.96600002 1.8346565e-38
0.30748653 -0.02384863 0.93200004 1.7426035e-38
0.30928957 -0.02384863 0.93200004 1.5301565e-38
0.30875608 -0.023669511 0.92500007 1.3263153e-38
0.31054556 -0.023669511 0.92500007 1.1424279e-38
0.31132206 -0.023592744 0.92200005 1.1158896e-38
0.31242657 -0.023541568 0.92000002 1.2357457e-38
0.31318179 -0.023464801 0.91700006 1.300066e-38
0.31426889 -0.023413625 0.91500002 1.3183968e-38
0.31534824 -0.023362447 0.91300005 1.3183967e-38
0.3171145 -0.023362447 0.91300005 1.309213e-38
0.31783298 -0.023285681 0.91000003 1.3092128e-38
0.31889105 -0.023234503 0.90800005 1.3091772e-38
0.32064766 -0.023234503 0.90800005 1.2999943e-38
0.32133904 -0.023157738 0.90500003 1.2908467e-38
0.32308984 -0.023157738 0.90500003 1.281663e-38
0.32484064 -0.023157738 0.90500003 1.2908464e-38
0.32586968 -0.02310656 0.90300006 1.2908463e-38
0.32834223 -0.023157738 0.90500003 1.2816626e-38
0.33009303 -0.023157738 0.90500003 1.2908099e-38
0.33184382 -0.023157738 0.90500003 1.29081e-38
0.33359462 -0.023157738 0.90500003 1.2816266e-38
0.33534542 -0.023157738 0.90500003 1.281591e-38
0.33709621 -0.023157738 0.90500003 1.2815913e-38
0.33809817 -0.02310656 0.90300006 1.2815553e-38
0.33984509 -0.02310656 0.90300006 1.2815548e-38
0.34159201 -0.02310656 0.90300006 1.2907385e-38
0.3425785 -0.023055384 0.90100002 1.2815194e-38
0.34317511 -0.022978617 0.89800006 1.263188e-38
0.34491238 -0.022978617 0.89800006 1.2539683e-38
0.34664962 -0.022978617 0.89800006 1.2631523e-38
0.34838688 -0.022978617 0.89800006 1.2631527e-38
0.35012412 -0.022978617 0.89800006 1.2723358e-38
0.35186139 -0.022978617 0.89800006 1.2815191e-38
0.35477993 -0.023055384 0.90100002 1.2998864e-38
0.35533589 -0.022978617 0.89800006 1.2723001e-38
0.35707316 -0.022978617 0.89800006 1.2631161e-38
0.3588104 -0.022978617 0.89800006 1.26308e-38
0.36054766 -0.022978617 0.89800006 1.2630443e-38
0.36228493 -0.022978617 0.89800006 1.253861e-38
0.36402217 -0.022978617 0.89800006 1.2446772e-38
0.36494482 -0.022927439 0.89600003 1.2446769e-38
0.36667821 -0.022927439 0.89600003 1.244713e-38
0.3684116 -0.022927439 0.89600003 1.2446413e-38
0.37014496 -0.022927439 0.89600003 1.253789e-38
0.37187836 -0.022927439 0.89600003 1.2538608e-38
0.37277779 -0.022876263 0.89400005 1.2538973e-38
0.37450731 -0.022876263 0.89400005 1.2630811e-38
0.37623683 -0.022876263 0.89400005 1.2630447e-38
0.37796634 -0.022876263 0.89400005 1.2630443e-38
0.37969586 -0.022876263 0.89400005 1.2538963e-38
0.38142538 -0.022876263 0.89400005 1.2538962e-38
0.3831549 -0.022876263 0.89400005 1.2539322e-38
0.38488442 -0.022876263 0.89400005 1.2447486e-38
0.38531658 -0.022799496 0.89100003 1.2447126e-38
0.38704029 -0.022799496 0.89100003 1.2447126e-38
0.38876399 -0.022799496 0.89100003 1.2447129e-38
0.39048773 -0.022799496 0.89100003 1.2354937e-38
0.39221144 -0.022799496 0.89100003 1.2446416e-38
0.39393514 -0.022799496 0.89100003 1.2446414e-38
0.39565885 -0.022799496 0.89100003 1.2354575e-38
0.39738256 -0.022799496 0.89100003 1.2171259e-38
0.39910629 -0.022799496 0.89100003 1.2171257e-38
0.40083 -0.022799496 0.89100003 1.2262735e-38
0.40255371 -0.022799496 0.89100003 1.2354214e-38
0.40427741 -0.022799496 0.89100003 1.2537527e-38
0.40600112 -0.022799496 0.89100003 1.2537887e-38
0.40772486 -0.022799496 0.89100003 1.244605e-38
0.40944856 -0.022799496 0.89100003 1.2446047e-38
0.41024932 -0.022748319 0.88900006 1.244569e-38
0.41196918 -0.022748319 0.88900006 1.2354217e-38
0.41368902 -0.022748319 0.88900006 1.2262026e-38
0.41540885 -0.022748319 0.88900006 1.2354223e-38
0.41712871 -0.022748319 0.88900006 1.2446051e-38
0.41884854 -0.022748319 0.88900006 1.2354565e-38
0.42056838 -0.022748319 0.88900006 1.2262733e-38
0.42228824 -0.022748319 0.88900006 1.2263099e-38
0.42496198 -0.022799496 0.89100003 1.2262738e-38
0.42668569 -0.022799496 0.89100003 1.2262373e-38
0.42744777 -0.022748319 0.88900006 1.2353843e-38
0.4291676 -0.022748319 0.88900006 1.2444234e-38
0.43088746 -0.022748319 0.88900006 1.2537543e-38
0.43260729 -0.022748319 0.88900006 1.447689e-38
0.43432716 -0.022748319 0.88900006 1.6138907e-38
0.43604699 -0.022748319 0.88900006 1.6228599e-38
0.43776682 -0.022748319 0.88900006 1.6411193e-38
0.31481358 -0.024137584 1.0200001 1.7609009e-38
0.31585515 -0.024066592 1.0170001 1.8163614e-38
0.31782264 -0.024066592 1.0170001 1.8347648e-38
0.30909896 -0.023262005 0.98300004 1.8347289e-38
0.31005153 -0.023191012 0.98000002 1.8255095e-38
0.31194741 -0.023191012 0.98000002 1.8163258e-38
0.31384331 -0.023191012 0.98000002 1.8162898e-38
0.31477267 -0.02312002 0.97700006 1.8070702e-38
0.31666276 -0.02312002 0.97700006 1.7978509e-38
0.31757465 -0.023049027 0.97400004 1.7978872e-38
0.31945893 -0.023049027 0.97400004 1.8346919e-38
0.30748653 -0.022055125 0.93200004 1.7148716e-38
0.30928957 -0.022055125 0.93200004 1.3822865e-38
0.30942366 -0.021936804 0.92700005 1.2062517e-38
0.31121701 -0.021936804 0.92700005 1.1976777e-38
0.31132206 -0.021818481 0.92200005 1.2079417e-38
0.31242657 -0.021771153 0.92000002 1.2634038e-38
0.31318179 -0.021700161 0.91700006 1.2909182e-38
0.31426889 -0.021652833 0.91500002 1.3092491e-38
0.31534824 -0.021605505 0.91300005 1.3092488e-38
0.3171145 -0.021605505 0.91300005 1.3092486e-38
0.31783298 -0.021534512 0.91000003 1.3092124e-38
0.31889105 -0.021487182 0.90800005 1.309177e-38
0.32064766 -0.021487182 0.90800005 1.3000303e-38
0.32133904 -0.021416189 0.90500003 1.2908827e-38
0.32308984 -0.021416189 0.90500003 1.2908823e-38
0.32484064 -0.021416189 0.90500003 1.2908822e-38
0.32659143 -0.021416189 0.90500003 1.290882e-38
0.32834223 -0.021416189 0.90500003 1.2908816e-38
0.33009303 -0.021416189 0.90500003 1.2908453e-38
0.33184382 -0.021416189 0.90500003 1.300029e-38
0.33359462 -0.021416189 0.90500003 1.2908457e-38
0.33534542 -0.021416189 0.90500003 1.272443e-38
0.33709621 -0.021416189 0.90500003 1.2724433e-38
0.33884701 -0.021416189 0.90500003 1.2815909e-38
0.34059781 -0.021416189 0.90500003 1.2907741e-38
0.34159201 -0.021368859 0.90300006 1.3090696e-38
0.34333894 -0.021368859 0.90300006 1.2906668e-38
0.34432158 -0.021321533 0.90100002 1.2722996e-38
0.34606463 -0.021321533 0.90100002 1.2631517e-38
0.34664962 -0.02125054 0.89800006 1.2631519e-38
0.34955075 -0.021321533 0.90100002 1.2724076e-38
0.35012412 -0.02125054 0.89800006 1.2723713e-38
0.35186139 -0.02125054 0.89800006 1.2907381e-38
0.35477993 -0.021321533 0.90100002 1.3090696e-38
0.35652298 -0.021321533 0.90100002 1.2815191e-38
0.35826603 -0.021321533 0.90100002 1.2539682e-38
0.3600091 -0.021321533 0.90100002 1.2723351e-38
0.36175215 -0.021321533 0.90100002 1.2722993e-38
0.36228493 -0.02125054 0.89800006 1.2630798e-38
0.36402217 -0.02125054 0.89800006 1.2447127e-38
0.36494482 -0.021203211 0.89600003 1.2447127e-38
0.3674967 -0.02125054 0.89800006 1.2355291e-38
0.3684116 -0.021203211 0.89600003 1.2446409e-38
0.3709712 -0.02125054 0.89800006 1.2446769e-38
0.37187836 -0.021203211 0.89600003 1.244677e-38
0.37361175 -0.021203211 0.89600003 1.2447492e-38
0.37534514 -0.021203211 0.89600003 1.2447493e-38
0.37707853 -0.021203211 0.89600003 1.2447132e-38
0.3788119 -0.021203211 0.89600003 1.2538964e-38
0.38054529 -0.021203211 0.89600003 1.253896e-38
0.38227868 -0.021203211 0.89600003 1.2539316e-38
0.38401207 -0.021203211 0.89600003 1.2539676e-38
0.38574547 -0.021203211 0.89600003 1.2447839e-38
0.38661394 -0.021155881 0.89400005 1.2447119e-38
0.38834345 -0.021155881 0.89400005 1.2447119e-38
0.39007297 -0.021155881 0.89400005 1.2447125e-38
0.39180249 -0.021155881 0.89400005 1.244677e-38
0.39353201 -0.021155881 0.89400005 1.244677e-38
0.39526153 -0.021155881 0.89400005 1.244641e-38
0.39699101 -0.021155881 0.89400005 1.2354573e-38
0.39872053 -0.021155881 0.89400005 1.2263094e-38
0.40045005 -0.021155881 0.89400005 1.2263094e-38
0.40217957 -0.021155881 0.89400005 1.2262736e-38
0.40390909 -0.021155881 0.89400005 1.2354216e-38
0.40563861 -0.021155881 0.89400005 1.2446054e-38
0.40736812 -0.021155881 0.89400005 1.244606e-38
0.40909764 -0.021155881 0.89400005 1.2446057e-38
0.41082716 -0.021155881 0.89400005 1.2537887e-38
0.41117227 -0.021084888 0.89100003 1.2537887e-38
0.41289598 -0.021084888 0.89100003 1.2446053e-38
0.41461971 -0.021084888 0.89100003 1.226274e-38
0.41540885 -0.021037562 0.88900006 1.226274e-38
0.41806713 -0.021084888 0.89100003 1.2262736e-38
0.41979083 -0.021084888 0.89100003 1.2262731e-38
0.42151454 -0.021084888 0.89100003 1.2263092e-38
0.42323828 -0.021084888 0.89100003 1.2263454e-38
0.42496198 -0.021084888 0.89100003 1.2171261e-38
0.42668569 -0.021084888 0.89100003 1.2262736e-38
0.42744777 -0.021037562 0.88900006 1.2352775e-38
0.4291676 -0.021037562 0.88900006 1.2718678e-38
0.43088746 -0.021037562 0.88900006 1.3094305e-38
0.43260729 -0.021037562 0.88900006 1.4847465e-38
0.43432716 -0.021037562 0.88900006 1.6411542e-38
0.43604699 -0.021037562 0.88900006 1.6503023e-38
0.31481358 -0.022174735 1.0200001 1.7700122e-38
0.31492341 -0.022044294 1.0140001 1.8163973e-38
0.31688508 -0.022044294 1.0140001 1.8439485e-38
0.30972785 -0.021413837 0.98500007 1.853096e-38
0.31005153 -0.021305136 0.98000002 1.8347289e-38
0.31194741 -0.021305136 0.98000002 1.8255452e-38
0.31288257 -0.021239916 0.97700006 1.8163257e-38
0.31477267 -0.021239916 0.97700006 1.8070702e-38
0.31569037 -0.021174697 0.97400004 1.7886672e-38
0.31757465 -0.021174697 0.97400004 1.797923e-38
0.31257123 -0.020718157 0.95300007 1.8163241e-38
0.31012592 -0.020435538 0.94000006 1.6406478e-38
0.31028515 -0.020326838 0.93500006 1.1789201e-38
0.31109262 -0.020261617 0.93200004 1.0222249e-38
0.31289563 -0.020261617 0.93200004 1.1889641e-38
0.31233504 -0.020109439 0.92500007 1.2815904e-38
0.31242657 -0.020000739 0.92000002 1.3001377e-38
0.31318179 -0.019935519 0.91700006 1.3093212e-38
0.3149558 -0.019935519 0.91700006 1.3184687e-38
0.31603903 -0.019892041 0.91500002 1.3184686e-38
0.3171145 -0.019848561 0.91300005 1.3092846e-38
0.31888077 -0.019848561 0.91300005 1.309284e-38
0.31959346 -0.01978334 0.91000003 1.3183962e-38
0.32135394 -0.01978334 0.91000003 1.3183974e-38
0.32240427 -0.019739861 0.90800005 1.3092857e-38
0.32416084 -0.019739861 0.90800005 1.3001017e-38
0.32591745 -0.019739861 0.90800005 1.3000656e-38
0.32767406 -0.019739861 0.90800005 1.3000654e-38
0.32943067 -0.019739861 0.90800005 1.3000291e-38
0.33118725 -0.019739861 0.90800005 1.3092121e-38
0.33294386 -0.019739861 0.90800005 1.31836e-38
0.33359462 -0.01967464 0.90500003 1.2999933e-38
0.33645707 -0.019739861 0.90800005 1.2816265e-38
0.33821365 -0.019739861 0.90800005 1.2816267e-38
0.33884701 -0.01967464 0.90500003 1.2815907e-38
0.34059781 -0.01967464 0.90500003 1.2907383e-38
0.34234861 -0.01967464 0.90500003 1.2998859e-38
0.34333894 -0.01963116 0.90300006 1.281483e-38
0.34508589 -0.01963116 0.90300006 1.2722634e-38
0.34683281 -0.01963116 0.90300006 1.2722633e-38
0.34780768 -0.019587681 0.90100002 1.2722994e-38
0.34955075 -0.019587681 0.90100002 1.2723713e-38
0.3512938 -0.019587681 0.90100002 1.272371e-38
0.35303685 -0.019587681 0.90100002 1.2815186e-38
0.35556746 -0.01963116 0.90300006 1.2907022e-38
0.35731438 -0.01963116 0.90300006 1.2539682e-38
0.3590613 -0.01963116 0.90300006 1.2264174e-38
0.36080822 -0.01963116 0.90300006 1.2631515e-38
0.36255515 -0.01963116 0.90300006 1.290702e-38
0.3634952 -0.019587681 0.90100002 1.2539318e-38
0.36523828 -0.019587681 0.90100002 1.2263455e-38
0.36575943 -0.019522462 0.89800006 1.2355291e-38
0.36872438 -0.019587681 0.90100002 1.2447125e-38
0.36923394 -0.019522462 0.89800006 1.2447123e-38
0.3722105 -0.019587681 0.90100002 1.2539319e-38
0.37270844 -0.019522462 0.89800006 1.253932e-38
0.37444571 -0.019522462 0.89800006 1.2539683e-38
0.37618297 -0.019522462 0.89800006 1.2538967e-38
0.37792021 -0.019522462 0.89800006 1.2538606e-38
0.37965748 -0.019522462 0.89800006 1.2538603e-38
0.38139471 -0.019522462 0.89800006 1.2538599e-38
0.38227868 -0.01947898 0.89600003 1.2538955e-38
0.38401207 -0.01947898 0.89600003 1.2539313e-38
0.38574547 -0.01947898 0.89600003 1.2539671e-38
0.38747883 -0.01947898 0.89600003 1.2447472e-38
0.38921222 -0.01947898 0.89600003 1.2447115e-38
0.39094561 -0.01947898 0.89600003 1.2447123e-38
0.39267901 -0.01947898 0.89600003 1.2447126e-38
0.39441237 -0.01947898 0.89600003 1.2447126e-38
0.39614576 -0.01947898 0.89600003 1.2447125e-38
0.39787915 -0.01947898 0.89600003 1.2447122e-38
0.39961255 -0.01947898 0.89600003 1.2354929e-38
0.40134594 -0.01947898 0.89600003 1.235493e-38
0.4030793 -0.01947898 0.89600003 1.2354575e-38
0.40481269 -0.01947898 0.89600003 1.2354217e-38
0.40654609 -0.01947898 0.89600003 1.2446417e-38
0.40827948 -0.01947898 0.89600003 1.2446065e-38
0.41001284 -0.01947898 0.89600003 1.2446063e-38
0.41082716 -0.019435501 0.89400005 1.2446056e-38
0.41255668 -0.019435501 0.89400005 1.2446411e-38
0.4142862 -0.019435501 0.89400005 1.2354576e-38
0.41601571 -0.019435501 0.89400005 1.2263098e-38
0.41634342 -0.01937028 0.89100003 1.2263095e-38
0.41947475 -0.019435501 0.89400005 1.2354929e-38
0.42120427 -0.019435501 0.89400005 1.2354568e-38
0.42293379 -0.019435501 0.89400005 1.2354926e-38
0.42466331 -0.019435501 0.89400005 1.2263092e-38
0.42639282 -0.019435501 0.89400005 1.2263096e-38
0.42668569 -0.01937028 0.89100003 1.2262023e-38
0.4284094 -0.01937028 0.89100003 1.2352784e-38
0.4301331 -0.01937028 0.89100003 1.3275802e-38
0.43185684 -0.01937028 0.89100003 1.4201004e-38
0.43260729 -0.019326802 0.88900006 1.5215168e-38
0.43432716 -0.019326802 0.88900006 1.6135676e-38
0.43604699 -0.019326802 0.88900006 1.6318272e-38
0.31296173 -0.02009299 1.0140001 1.7790152e-38
0.3139917 -0.020033544 1.011 1.7979225e-38
0.31501001 -0.019974096 1.008 1.8347655e-38
0.31067118 -0.019577784 0.98800004 1.8531322e-38
0.31100065 -0.019478707 0.98300004 1.8347289e-38
0.31194741 -0.01941926 0.98000002 1.8255093e-38
0.31288257 -0.019359814 0.97700006 1.8162898e-38
0.31380609 -0.019300368 0.97400004 1.8070701e-38
0.31406981 -0.019201288 0.96900004 1.7978865e-38
0.31235784 -0.018983318 0.95800006 1.7888109e-38
0.31158727 -0.018824793 0.95000005 1.7793377e-38
0.31078577 -0.018666269 0.94200003 1.5572763e-38
0.31094888 -0.01856719 0.93700004 1.0500617e-38
0.31109262 -0.018468112 0.93200004 9.1245311e-39
0.31289563 -0.018468112 0.93200004 1.1985073e-38
0.31301036 -0.018369036 0.92700005 1.3276874e-38
0.31412455 -0.018329404 0.92500007 1.3277597e-38
0.31420636 -0.018230325 0.92000002 1.3185047e-38
0.3149558 -0.018170878 0.91700006 1.3276884e-38
0.31603903 -0.018131249 0.91500002 1.3184693e-38
0.31780916 -0.018131249 0.91500002 1.3092856e-38
0.31888077 -0.018091617 0.91300005 1.309285e-38
