ply
format ascii 1.0
comment VCGLIB generated
element vertex 2386
property float x
property float y
property float z
element face 0
property list uchar int vertex_indices
end_header
-0.81 4.29 -1.53 
-2.43 6.499687 -1.29 
-1.17 2.82 -0.6225091 
-2.34 6.499687 -1.47 
1.455654 -3.09 -0.39 
-0.48 -3.18 -0.8635817 
-0.54 -3.33 -0.8548599 
-0.66 2.58 0.8244712 
4.630312 5.07 -1.17 
0.15 5.88 1.53 
4.11 6.499687 0.33 
-4.630312 6.18 0.84 
4.11 6.3 1.53 
-3.24 5.28 -1.53 
-3.75 6.499687 0.87 
0.33 2.49 -0.8856611 
-1.02 6.09 1.53 
3.27 6 -1.53 
-0.57 6.499687 0.51 
-1.62 0.93 -0.0009455128 
-0.84 1.08 -0.7737672 
0.84 1.56 -0.7737611 
2.31 3.51 1.53 
3.12 6.499687 -0.9899999 
1.71 5.4 1.53 
-1.61086 -2.16 -0.06 
-1.8 5.76 -1.53 
0.57 -1.26 0.8483877 
4.38 6.12 1.53 
-1.98 6.33 1.53 
4.17 4.68 -1.53 
-1.62 1.77 0.0003525641 
-2.49 3.499687 0.24 
-4.56 3.81 1.53 
-1.5 5.37 1.53 
2.22 6.27 1.53 
-1.05 1.26 -0.6900526 
-4.62 6.3 1.53 
4.44 6.499687 0.54 
-2.46 6.499687 1.17 
4.630312 5.88 -0.54 
0.72 5.25 -1.53 
1.86 3.72 -1.53 
1.38 3.499687 -1.32 
-3.03 6.499687 -1.2 
2.91 3.499687 -0.66 
-1.44 3.499687 -1.14 
1.89 6.499687 0.09 
3.57 6.499687 -1.32 
4.630312 4.02 1.08 
2.19 3.93 -1.53 
-3.06 6.499687 1.5 
3.96 3.499687 -1.32 
-1.08 1.23 0.6733253 
1.08 -2.79 0.6731176 
-4.17 6.499687 -0.24 
-0.66 -1.59 0.8245928 
1.2 -0.06 0.6057543 
0.03 -2.55 0.9057073 
-4.14 3.499687 0.84 
-1.455524 -2.34 0.39 
0.78 3.499687 -1.47 
-1.5 4.59 -1.53 
1.29 3.499687 0.69 
3.27 5.91 -1.53 
-4.14 3.96 -1.53 
-0.84 3.499687 0.84 
-0.81 -3.499687 -0.72 
-0.96 -1.14 -0.7265285 
1.89 6.39 -1.53 
2.61 5.28 1.53 
-4.630312 5.46 -1.41 
-1.89 3.499687 -1.05 
-1.08 -2.7 -0.6731717 
4.44 3.499687 1.17 
-2.46 3.499687 0.48 
-3.63 3.6 1.53 
-4.630312 4.83 0.87 
-3.72 3.57 1.53 
-0.66 6.3 -1.53 
-2.49 6.499687 1.47 
-4.630312 6.33 -1.29 
-3.03 4.44 1.53 
-1.02 4.8 1.53 
-3.9 4.71 -1.53 
-2.19 6.499687 -1.41 
-1.615215 0.63 0.03 
-1.8 3.499687 0.6 
1.38 5.01 1.53 
1.08 1.14 0.6729906 
-2.58 3.499687 -1.05 
4.630312 3.57 1.11 
-0.27 -3.499687 -0.42 
-0.57 6.499687 0.6 
3.54 6.15 -1.53 
-3.63 6.499687 0.75 
-1.08 -3.21 0.673165 
-3.69 3.84 -1.53 
-2.85 4.47 -1.53 
-0.72 -0.66 0.8087031 
0.69 -0.69 -0.8165302 
0.36 6.15 -1.53 
2.73 3.499687 0.21 
-1.83 3.499687 -0.66 
2.58 3.499687 1.26 
-1.08 6.499687 1.32 
-1.68 5.25 1.53 
4.630312 6.39 -0.39 
4.11 4.26 -1.53 
0.63 5.22 -1.53 
3.72 5.79 -1.53 
1.44 3.499687 1.35 
4.5 3.499687 0.36 
1.480477 -3.3 -0.36 
-3.6 6.499687 -0.48 
-1.610683 2.04 -0.06 
-4.630312 5.25 -1.29 
0.81 2.52 0.785625 
1.294626 1.83 0.54 
-3.57 3.499687 -0.18 
0.81 -1.62 0.785625 
-0.75 2.16 0.8011075 
-4.11 6.499687 -0.9899999 
1.555975 2.67 0.24 
0.33 -3.21 -0.8856798 
4.44 6.499687 -0.03 
4.630312 4.32 -0.96 
-0.18 -2.88 -0.8984045 
1.555622 3.21 0.24 
-2.28 3.499687 -0.66 
0.06 -2.19 -0.9042864 
-1.71 6.499687 -1.14 
-1.05 -2.01 0.6896552 
-2.73 6 -1.53 
-1.62 -0.69 0 
-0.36 0.12 -0.8815117 
-2.55 3.499687 0.63 
-4.630312 4.71 -1.2 
1.17 -3.21 -0.6225 
0.09 3.499687 -1.5 
3.27 4.95 -1.53 
-1.02 4.59 -1.53 
-0.57 0.12 0.8483766 
0.9899999 6.499687 0.36 
1.569991 0.42 -0.21 
4.630312 3.51 -0.72 
1.44 4.14 1.53 
-3.24 6.499687 0.81 
4.630312 6.45 1.08 
-1.02 4.08 1.53 
1.17 5.13 1.53 
-1.05 -0.69 0.689535 
0.54 6.499687 0.24 
0.9899999 1.44 -0.7149988 
4.630312 4.89 1.17 
3.75 4.8 -1.53 
0.48 -3.499687 -0.69 
4.5 3.499687 -1.02 
3.12 6.45 -1.53 
0.51 4.38 -1.53 
4.23 3.499687 1.02 
-0.3 3.499687 1.29 
-1.77 4.8 -1.53 
-1.44 6.499687 0 
-0.27 -1.47 0.8939352 
-3.57 5.7 1.53 
0.27 -0.42 -0.8940679 
-1.59 5.7 -1.53 
3.72 3.499687 -0.9 
-4.630312 4.29 0.63 
-0.36 6.21 1.53 
-4.08 3.75 1.53 
3.03 6.499687 1.47 
4.23 6.499687 -0.27 
-1.44 6.499687 0.24 
-2.82 3.499687 -0.78 
-4.630312 4.11 -0.6 
0.9008728 -2.01 -0.75 
3.87 6.499687 0.78 
4.05 3.499687 -0.36 
-1.049873 0.81 0.69 
1.59 4.26 -1.53 
-1.14 -0.51 -0.6390625 
-1.05 6.03 -1.53 
0 2.94 -0.9075 
0.81 0.6 -0.785625 
1.68 3.499687 -0.06 
-4.05 6.39 1.53 
3.69 3.499687 0.87 
0.57 6.499687 -1.17 
-4.630312 3.96 -0.18 
0.18 2.76 -0.8981748 
0.51 -2.22 -0.8586437 
-0.75 1.86 -0.8015616 
4.56 3.499687 -0.51 
4.630312 5.07 0.45 
-2.46 5.01 1.53 
3.06 6.499687 0.51 
0.24 -3.3 -0.8951219 
1.527149 1.29 -0.3 
2.19 6.499687 -0.69 
-0.9899999 -1.62 -0.7149943 
1.17 -3.499687 -0.39 
-1.610884 1.32 -0.06 
-3.66 4.74 -1.53 
4.630312 3.96 -0.72 
0 -3.499687 -0.03 
0.45 0.87 0.8683827 
-0.12 3.84 1.53 
-1.17 4.41 -1.53 
0.33 -2.46 0.8857038 
1.41 6.499687 0.63 
3.48 5.22 -1.53 
0.48 2.91 -0.8636868 
4.630312 5.34 -0.96 
-0.84 6.45 -1.53 
1.68 6.499687 -0.93 
-0.45 6.499687 -0.84 
-1.77 3.499687 1.35 
1.8 3.499687 -1.29 
-1.17 -2.55 -0.6229865 
-3.45 5.25 -1.53 
-4.5 6.499687 1.02 
0.93 1.08 -0.7382813 
3.75 6.499687 -1.11 
-1.74 3.54 1.53 
-4.630312 4.35 0.69 
0 -0.66 0.9075 
-1.23 3.499687 -1.53 
4.5 6.499687 0.96 
-0.9899999 6.499687 0.66 
3.57 3.499687 -1.08 
-0.9899999 1.05 0.7148986 
4.2 3.499687 -0.54 
0.48 1.53 -0.8637491 
2.1 3.51 1.53 
-1.59 6.499687 1.05 
4.62 6.499687 1.44 
0.96 -1.77 0.7265784 
-3.6 6.499687 -0.9899999 
0.27 3.21 -0.8939841 
-4.62 3.499687 0.6 
-3.39 4.65 -1.53 
2.1 6.499687 -0.93 
-1.86 3.499687 1.38 
-0.36 6.42 -1.53 
-0.63 6.499687 -0.87 
-0.33 6.499687 -1.2 
1.103437 0.45 -0.66 
0.09 5.82 1.53 
1.08 -2.61 -0.6728837 
0.81 -3.27 -0.785625 
-4.47 3.499687 1.11 
-1.8 3.499687 -1.32 
-0.57 2.85 0.8483239 
-4.56 6.499687 -1.2 
-1.62 3.36 -0.001357759 
-1.62 0.45 -0.000224359 
-0.81 -2.04 -0.785625 
0.9899999 6.499687 -1.29 
-3.99 3.499687 -0.48 
-3.09 6.499687 -0.06 
-0.81 1.77 0.785625 
-1.23 -3.499687 -0.27 
4.630312 6.39 1.11 
3.03 4.08 1.53 
1.48047 -1.23 0.36 
-0.12 -3.15 0.9009375 
1.62 -1.71 0 
1.32 5.91 -1.53 
-1.14 5.1 -1.53 
1.480644 2.64 -0.36 
-0.36 2.01 -0.8817816 
-3.27 6.499687 -0.57 
1.77 6.499687 -0.9 
-2.7 3.75 -1.53 
4.630312 4.71 1.32 
-0.75 2.46 -0.80151 
-4.630312 4.74 -1.32 
3.36 5.55 -1.53 
-4.630312 5.16 0.48 
0.51 -0.3 -0.8591386 
-2.55 6.12 1.53 
-4.630312 3.9 1.35 
1.54125 -3.06 0.27 
-1.26 4.65 1.53 
1.11 3.87 1.53 
1.89 6.499687 -0.63 
-1.60569 -0.42 0.09 
-4.630312 5.1 0 
-0.12 1.95 -0.9014243 
-1.570244 -0.93 0.21 
1.29 6.499687 0.33 
4.630312 4.65 0.72 
4.630312 5.52 -0.93 
4.53 6.499687 -1.5 
0.18 3.09 -0.8979415 
1.570284 1.11 0.21 
-0.3 -2.37 0.8906789 
2.31 6.499687 -1.2 
4.630312 5.79 -1.05 
-1.59 6.499687 -0.51 
0.48 6.499687 1.02 
0.18 -3.48 -0.8984115 
-4.38 4.95 -1.53 
3.78 6.499687 -0.87 
-3.15 6.499687 0.36 
-0.03 6.499687 -0.54 
2.85 6.499687 -0.66 
-4.47 3.499687 -1.17 
4.32 5.52 1.53 
-0.66 3.499687 -1.2 
-0.12 3.66 1.53 
-2.07 3.499687 -0.48 
-3.96 6.499687 0.63 
-3.03 6.499687 -0.18 
-3.54 3.499687 0.36 
-4.630312 4.77 -0.96 
-3.09 6.499687 1.32 
1.62 -1.56 0 
-1.48073 -3.42 -0.36 
-0.36 -1.38 0.8814712 
-0.48 -0.54 0.8635728 
2.52 5.16 -1.53 
3.81 6.18 -1.53 
-2.1 3.499687 -0.75 
-1.480338 0.39 0.36 
-1.480514 1.59 -0.36 
-3.78 3.99 1.53 
0.87 5.7 1.53 
-1.74 6.499687 0.24 
-1.05 2.82 -0.6895312 
-1.8 6.39 -1.53 
-4.630312 5.25 0.45 
-0.33 -1.77 -0.885877 
0.72 -3.499687 0.24 
-0.93 3.93 -1.53 
-0.57 -2.52 -0.8480774 
-1.11 4.68 -1.53 
3.15 3.499687 -0.21 
4.5 4.47 -1.53 
1.89 3.499687 1.05 
-3.21 5.13 1.53 
0.72 3.499687 1.17 
-2.7 6.499687 -0.51 
-0.03 -1.47 0.9055237 
-1.41 6.499687 -0.06 
-2.01 6.499687 -0.18 
-2.52 3.499687 -1.47 
1.256871 0.42 -0.57 
-0.06 3.72 1.53 
-4.56 5.13 1.53 
4.630312 3.87 -1.32 
1.23 1.86 -0.5888577 
-4.630312 3.66 -0.06 
2.16 6.499687 -1.14 
0.9899999 -2.1 -0.7149897 
4.41 4.08 1.53 
-0.15 -3.499687 -0.6 
4.56 3.499687 -1.32 
1.17 1.23 -0.6223838 
2.85 5.07 1.53 
-1.570139 0.39 -0.21 
0 -3.24 -0.9075 
-2.73 6.36 -1.53 
1.77 5.37 -1.53 
1.570417 0.96 -0.21 
-3.87 3.499687 -1.53 
1.35 6.48 1.53 
1.92 3.499687 -0.66 
-4.11 4.98 -1.53 
-4.630312 4.68 -0.24 
-4.38 5.34 -1.53 
1.02 -3.499687 -0.63 
-0.12 5.61 1.53 
0.57 1.89 -0.8483667 
1.14 2.82 -0.6390305 
-0.36 1.02 -0.8816289 
4.47 4.59 1.53 
0.96 -0.6 0.7265685 
1.32 2.94 -0.5196875 
3.72 6.15 1.53 
1.02 1.5 0.7029086 
-3.33 3.78 -1.53 
4.630312 4.11 1.05 
0.24 -3.499687 -0.87 
-1.5 3.96 -1.53 
-2.13 4.77 -1.53 
-3.09 6.499687 0.39 
-4.32 5.55 -1.53 
4.630312 5.94 1.32 
-1.23 6.499687 -1.23 
4.630312 5.73 -1.02 
-1.98 6.499687 -0.42 
-2.25 3.499687 0.42 
-0.24 1.11 0.8951948 
-0.63 -0.27 0.8323758 
-2.16 5.67 -1.53 
1.480326 2.13 -0.36 
3.09 6.499687 -0.33 
0.03 1.83 0.9057108 
1.480862 -2.73 0.36 
3.78 5.34 -1.53 
0.54 5.7 1.53 
-4.630312 6 1.08 
-3.78 5.73 1.53 
1.14 0 -0.6389682 
1.26 3.499687 -0.69 
-0.66 -3.499687 -0.27 
0.57 2.01 -0.8480163 
-4.14 6.15 -1.53 
-3.84 6.499687 0.33 
0.9007345 3.12 -0.75 
-4.08 3.499687 -0.21 
3.18 6.499687 -0.84 
-4.08 6.499687 -0.09 
0.33 -2.85 -0.8857999 
-3.09 4.89 1.53 
-3.12 5.28 1.53 
1.26 3.57 1.53 
-4.26 5.94 -1.53 
0.9899999 3.66 1.53 
-3.48 5.46 -1.53 
1.527139 0.06 0.3 
-2.55 6.48 -1.53 
1.26 -2.58 0.5680791 
-4.630312 4.65 1.02 
1.527155 -2.04 -0.3 
-1.35 0.12 0.4959363 
4.630312 5.82 -0.27 
0.9899999 2.25 0.7147772 
2.28 3.499687 1.17 
-1.615466 2.91 0.03 
4.630312 5.82 -1.47 
-3.93 6.499687 -0.75 
4.11 3.96 -1.53 
-4.630312 6.12 -0.75 
-0.36 -3.09 -0.8812981 
-1.54123 2.61 0.27 
0.54 -2.37 0.854493 
-0.84 4.8 -1.53 
4.630312 3.99 -1.2 
-0.06 3.499687 -1.47 
-3.93 5.01 -1.53 
2.82 3.499687 -0.78 
4.630312 6.03 -0.3 
4.05 6.499687 -0.96 
-4.08 4.8 -1.53 
3.15 3.499687 -1.47 
1.5 6.499687 1.11 
1.11 4.95 -1.53 
0 5.7 1.53 
0.3 -3.499687 0.84 
0.6 6.24 1.53 
1.71 3.499687 0.51 
0.24 1.17 0.8953125 
2.79 6.03 -1.53 
-2.22 6.499687 -1.11 
1.44 3.499687 0.51 
4.630312 3.99 0.24 
-1.08 -2.07 0.6731722 
-3.36 6.499687 1.5 
-2.55 3.499687 -0.21 
1.29 6.42 1.53 
-1.26 3.499687 0.9899999 
0.9899999 3.96 -1.53 
-1.08 1.68 0.6731561 
2.49 6.499687 -1.5 
-2.82 3.499687 1.35 
-0.9006196 -0.93 0.75 
-1.48083 -2.94 0.36 
-1.86 5.34 -1.53 
-2.1 5.1 1.53 
1.47 1.02 0.3728098 
1.32 -2.73 0.5196875 
-1.570391 -2.64 0.21 
3.6 5.25 1.53 
4.05 4.8 1.53 
-3.93 6.499687 -1.32 
-3.78 6.499687 0.3 
4.14 6.499687 -1.32 
-1.23 -2.61 -0.589318 
0.24 2.7 0.8954454 
0.09 6.15 1.53 
4.38 5.46 -1.53 
2.58 3.499687 -1.17 
-0.81 -0.33 0.785625 
-0.72 6.42 1.53 
-4.44 6.499687 1.17 
-1.47 3.499687 -0.57 
2.55 3.499687 0.33 
-1.5 6.36 -1.53 
3.87 3.57 -1.53 
1.11 -3.499687 0.42 
0.3 6.33 1.53 
-4.630312 5.82 1.11 
-1.156564 2.37 -0.63 
4.56 6.499687 0.48 
-0.63 -3 -0.8324763 
-2.73 6.15 -1.53 
-4.35 6.499687 0.48 
2.94 6.33 -1.53 
3.75 3.499687 0.84 
-2.4 3.499687 0.51 
3.84 4.5 -1.53 
1.541205 0.69 -0.27 
-0.06 0.9899999 -0.9040333 
-0.81 3.499687 -1.05 
-1.605652 -0.63 -0.09 
-0.63 2.43 0.832419 
-1.02 5.94 -1.53 
1.05 -1.56 -0.689513 
-0.27 -0.78 0.8942379 
-4.630312 3.51 1.23 
-1.17 1.92 0.622548 
-2.4 6.499687 -0.33 
-1.86 5.91 1.53 
-4.630312 4.05 0.27 
-0.78 3.499687 1.17 
2.52 3.499687 1.2 
0.9899999 -3 0.7147759 
-0.87 4.23 -1.53 
-2.7 3.99 1.53 
2.1 4.11 1.53 
-4.630312 4.65 -0.6 
-3.18 5.79 -1.53 
0.54 -2.85 -0.854625 
0.03 5.01 1.53 
3.78 3.66 -1.53 
1.62 -2.13 0 
-0.21 0.39 -0.8971875 
1.605892 0.72 -0.09 
3.39 6.499687 0.96 
-1.430263 -0.66 -0.42 
2.52 4.26 -1.53 
-3.12 3.499687 1.47 
-1.86 6.499687 -1.35 
4.630312 5.16 1.02 
-4.630312 3.99 -0.24 
3.33 6.499687 1.02 
0.24 2.01 -0.8952393 
-3.66 3.499687 1.32 
-4.630312 4.65 -1.53 
1.2 3.499687 1.35 
-0.78 4.47 -1.53 
-2.58 6.499687 -0.15 
2.91 3.499687 1.38 
1.17 1.56 0.6225869 
4.08 6.499687 -0.12 
-3.78 6.499687 0 
3.78 3.499687 -1.2 
3.63 4.83 -1.53 
1.38 -0.09 -0.4715948 
2.85 3.499687 -1.35 
-3.78 5.91 -1.53 
2.22 3.499687 -1.05 
4.630312 4.68 -0.21 
1.570156 -2.88 0.21 
1.95 5.49 1.53 
2.79 3.54 1.53 
1.83 6.499687 1.02 
-0.48 5.85 -1.53 
2.52 5.7 1.53 
3.66 5.46 1.53 
4.62 6.499687 -0.3 
3.9 6.499687 -0.69 
-0.33 3.499687 1.2 
-1.02 2.64 0.7030801 
1.08 2.73 0.6732497 
1.555781 -0.84 -0.24 
-1.605911 -0.24 0.09 
-2.73 6.499687 1.38 
-4.17 5.79 -1.53 
3.57 4.71 1.53 
-4.38 5.73 -1.53 
-1.29 3.66 1.53 
-0.81 -0.57 0.785625 
-1.41 4.02 1.53 
-0.96 3.51 1.53 
4.38 3.499687 -1.14 
0.57 -0.9899999 0.8483794 
-0.51 5.82 1.53 
-2.82 3.499687 -0.9899999 
4.47 4.02 -1.53 
-2.19 5.07 1.53 
0.7159562 1.26 -0.81 
0.18 6.499687 0.9 
4.56 6.499687 -0.6 
-4.2 3.99 1.53 
3.72 6.499687 0.18 
0.51 -0.21 -0.8588942 
3.75 6.499687 -1.23 
-1.480856 0.9899999 0.36 
0.9007024 1.26 -0.75 
3.33 6.499687 -1.35 
0.66 -2.58 0.8244712 
4.56 3.99 -1.53 
1.8 3.499687 0.21 
-3.48 6.499687 -0.36 
-0.78 6.499687 -1.53 
0.45 -0.06 -0.8681445 
1.05 0.75 -0.6897339 
1.26 2.04 -0.5680736 
-3.78 5.97 1.53 
-1.17 -1.26 0.6226994 
0.24 0.93 0.8954936 
-1.56 -3.499687 0.09 
2.76 4.38 -1.53 
1.17 3.499687 1.47 
4.53 6.499687 1.2 
1.32 0.48 -0.5197901 
1.2 6.499687 0.9 
-0.24 4.47 -1.53 
-0.42 5.4 1.53 
-2.01 3.9 -1.53 
-0.15 6.499687 0.81 
-2.31 4.41 -1.53 
-1.596696 -0.03 -0.15 
3.93 3.499687 0.48 
0.54 3.499687 1.32 
-0.93 -1.65 -0.7384073 
-4.11 6.45 -1.53 
-0.72 6.499687 0.87 
1.430399 1.05 0.42 
1.14 3.81 1.53 
0.33 3.21 0.8856798 
-1.605997 -1.92 0.09 
-1.95 3.9 1.53 
-0.57 -3.499687 0.54 
1.38 6.499687 -1.5 
0.45 5.91 -1.53 
4.38 5.7 1.53 
1.23 3.03 -0.58875 
0.96 0 -0.7266381 
-3.72 5.76 1.53 
-3.93 3.9 1.53 
-0.24 -0.93 -0.8953125 
0.03 0.9 0.9058253 
1.47 4.44 -1.53 
-3.51 6.499687 0.51 
0.18 4.17 -1.53 
1.83 6.499687 0.81 
4.630312 4.32 1.35 
-1.59 3.499687 0.9 
-1.480486 -2.88 -0.36 
0.72 6.499687 1.5 
1.44 3.499687 -1.29 
0.18 0.63 0.8983831 
3.42 3.499687 0.33 
-3.6 3.499687 -0.63 
-0.48 0.36 0.8635479 
-1.480526 1.32 0.36 
2.43 3.499687 -0.72 
-2.55 5.7 -1.53 
4.630312 4.95 -1.47 
0.33 4.08 1.53 
0.81 5.88 -1.53 
0.48 6.499687 -0.15 
1.59 5.04 -1.53 
-4.630312 4.44 1.38 
-1.38 3.96 -1.53 
0.63 3.499687 0.84 
-1.26 3.48 -0.567793 
-4.2 6.499687 -0.9 
-0.06 0.03 -0.9042276 
0.57 -3.3 -0.8481504 
2.94 6.499687 1.32 
-0.75 2.91 -0.8015215 
4.38 5.31 1.53 
-2.16 4.68 -1.53 
2.4 6.499687 -0.12 
-2.73 5.07 -1.53 
-4.630312 5.76 1.17 
-1.77 4.8 1.53 
-1.59 6.12 1.53 
1.11 -0.9 0.6557951 
-2.19 3.499687 0.39 
-1.68 6.499687 -0.06 
-0.9009895 -2.43 -0.75 
-2.07 5.91 1.53 
1.41 3.499687 1.41 
1.35 5.97 1.53 
4.630312 5.16 1.44 
1.08 5.25 1.53 
-1.89 5.82 1.53 
1.32 -3.18 -0.5196875 
-4.630312 5.1 1.35 
1.62 6.499687 1.32 
0.69 5.88 -1.53 
-4.35 6.36 1.53 
-2.25 6.499687 0.72 
4.2 5.91 -1.53 
-1.610923 3.15 0.06 
-1.60615 2.67 -0.09 
-4.630312 4.26 1.26 
-1.556234 2.73 -0.24 
1.35 4.26 1.53 
-0.48 -1.68 -0.8635371 
-2.97 4.41 1.53 
-0.81 4.26 1.53 
-4.630312 4.26 -0.63 
4.630312 3.93 -0.36 
-1.293873 -0.96 0.54 
1.610773 1.41 0.06 
0.48 -1.68 0.8635371 
0.12 -2.76 -0.9010041 
0.48 4.23 1.53 
1.05 2.43 -0.6895312 
-4.630312 4.98 0.15 
-1.08 -2.73 0.6732497 
-0.75 -3.15 -0.8014908 
-1.555781 3.42 -0.24 
3 4.71 -1.53 
1.29 6.48 -1.53 
-0.84 4.5 -1.53 
-4.630312 4.95 0.48 
3.33 6.499687 -1.11 
-0.54 -2.88 -0.8548191 
-0.21 -0.18 0.8971875 
-2.73 4.05 1.53 
1.57025 2.88 0.21 
-4.630312 6.03 0.66 
4.630312 4.05 -0.18 
-2.73 4.86 1.53 
0.39 -3.499687 0 
-1.38 3.499687 -1.23 
-4.630312 4.68 -1.05 
4.32 3.499687 -0.03 
1.65 6.499687 -0.51 
0.12 1.38 0.9009375 
-2.31 3.51 1.53 
0.9899999 0.06 -0.7148728 
-1.11 6.499687 -0.39 
0.66 5.82 -1.53 
1.505875 -1.8 0.33 
1.89 3.499687 0.51 
0.57 -2.37 -0.8483092 
3.33 3.499687 -0.45 
-4.38 6.499687 1.14 
3.33 5.31 -1.53 
3.9 3.499687 1.47 
0.66 6.499687 -0.42 
-0.48 1.32 -0.8634483 
1.62 -2.34 0 
-1.102916 -0.75 0.66 
3.36 3.6 -1.53 
1.08 2.01 0.6729733 
3.84 5.67 1.53 
1.32 0.57 -0.5196875 
4.11 3.499687 -0.54 
-1.5 5.61 1.53 
-4.630312 4.83 -0.48 
2.97 6.499687 -0.66 
-1.62 6.499687 -1.32 
-4.05 6.499687 0.75 
-1.47 -3.499687 -0.15 
-4.23 3.69 -1.53 
0.9899999 -0.51 -0.7148214 
2.4 4.62 -1.53 
2.37 3.499687 0.75 
-3.24 3.499687 -1.26 
3.45 6.499687 -0.9899999 
-0.84 6.499687 0.09 
0.54 4.8 1.53 
-0.3 0.03 0.8904077 
1.02 1.86 -0.7033617 
2.85 6.24 1.53 
-2.28 3.499687 0.06 
-2.52 5.31 1.53 
4.5 3.69 -1.53 
-0.06 -0.69 0.9039892 
0.7167227 -3.27 0.81 
-1.77 6.499687 1.11 
0 6.3 -1.53 
-3.99 3.87 1.53 
1.08 3.24 -0.6729721 
1.86 4.86 1.53 
2.85 6.499687 0.27 
3.69 6.499687 -0.42 
0.57 0.78 0.8483899 
-0.81 -0.72 -0.785625 
-4.630312 4.17 -1.41 
4.630312 6.45 -0.06 
3.12 3.499687 0.6 
4.630312 4.47 0.18 
-1.2 -3.24 0.6059175 
-0.84 0.84 -0.773764 
-0.21 6.499687 -1.35 
-1.17 0.9899999 -0.622888 
0.24 3.499687 1.47 
-1.555385 -1.11 0.24 
-4.630312 5.88 -1.23 
3.48 3.499687 -1.26 
-4.630312 4.95 -0.48 
2.13 6.499687 -0.51 
2.55 5.07 -1.53 
0.15 5.76 -1.53 
4.630312 5.85 1.05 
2.88 5.55 1.53 
-0.21 3.63 1.53 
-1.32 -1.65 0.5196875 
-1.541101 3.33 0.27 
1.89 6.499687 0.78 
-3.33 3.499687 0.54 
1.570183 -2.7 -0.21 
-0.21 2.85 0.8971875 
-1.77 6.499687 -1.47 
-2.61 6.45 -1.53 
-0.09 6.12 1.53 
0.27 4.44 1.53 
3.27 6.499687 -0.06 
4.56 4.95 -1.53 
-4.630312 6.15 -0.69 
-0.15 1.98 0.8999749 
-4.05 6.48 1.53 
-4.47 6.499687 0.03 
-0.51 1.71 0.8590084 
-3.06 6.42 -1.53 
-1.605998 -3.33 -0.09 
-0.12 -3.48 0.9011381 
1.2 -2.94 0.6056423 
3.06 3.499687 0.24 
-0.18 1.89 -0.8985168 
4.630312 3.57 -1.26 
0.24 3.499687 1.35 
-0.9 4.56 -1.53 
-1.584375 -1.8 -0.18 
2.67 6.18 1.53 
1.555781 -3 -0.24 
0.36 1.29 -0.8813891 
-1.11 5.91 -1.53 
4.630312 5.67 -0.51 
-4.630312 5.25 -0.9 
-0.57 3.42 -0.8483493 
0.36 -0.21 0.881887 
4.630312 3.81 -0.87 
1.5 2.01 0.3369423 
3.99 4.77 1.53 
-3.66 4.41 1.53 
-2.91 6.499687 -0.84 
0.84 6.499687 -0.84 
-1.61097 2.25 0.06 
-0.39 3.99 -1.53 
-2.25 5.4 -1.53 
-4.32 3.84 -1.53 
-0.93 6.499687 1.5 
-4.630312 4.08 -1.47 
-1.32 6.15 1.53 
0.21 6.15 1.53 
-1.5 2.61 0.3370473 
0.42 6.499687 0.48 
0.15 0.06 0.8998846 
-1.83 5.22 -1.53 
-4.38 5.97 1.53 
-0.93 -3.499687 -0.51 
0.24 -1.2 0.8953125 
-1.610325 3.3 0.06 
-1.17 -2.07 0.6228808 
3.24 5.88 1.53 
0.33 -3.499687 0.03 
-4.630312 5.85 -0.54 
0.06 -3.499687 -0.36 
-0.72 6.499687 -0.66 
3.9 6.15 1.53 
-1.23 -3.09 -0.58875 
-4.630312 6.12 0.87 
-3.45 3.84 1.53 
-1.17 5.88 -1.53 
-4.630312 6.36 -0.9 
-1.480644 2.64 -0.36 
2.67 4.02 1.53 
0.6 6.499687 -1.11 
0.81 -2.91 -0.785625 
-3.75 5.37 -1.53 
-4.630312 6.39 -0.42 
-1.68 6.499687 0.63 
3.72 3.499687 -1.14 
-2.67 3.499687 -1.2 
-0.18 5.25 -1.53 
-1.59 3.499687 1.23 
4.38 3.93 -1.53 
4.02 3.72 -1.53 
-1.86 5.19 1.53 
-0.84 -0.84 0.773764 
-4.630312 4.38 -1.35 
2.94 6.499687 0.06 
3.12 5.1 -1.53 
-3.15 5.34 1.53 
2.64 6.12 1.53 
0.9899999 1.11 0.7147986 
-0.51 6.499687 1.05 
-0.57 -3.27 -0.8483328 
1.08 3.499687 0.75 
-4.630312 5.97 0.9899999 
2.25 6.03 -1.53 
0.9 4.44 1.53 
-3.21 6.499687 -1.44 
4.630312 3.72 1.47 
2.37 3.499687 0.48 
1.59 4.65 -1.53 
-2.07 6.499687 -1.44 
0.21 -3.499687 0.51 
3.6 5.85 -1.53 
4.26 6.12 -1.53 
-3.75 3.499687 1.05 
-3.03 6.499687 0.36 
-1.615151 3.06 0.03 
-1.44 4.71 -1.53 
3.87 3.66 -1.53 
0.81 -2.1 -0.785625 
1.56 -3.499687 0.21 
4.630312 3.93 -0.48 
3.69 3.499687 -0.96 
1.08 2.34 -0.6730541 
-3.33 4.68 -1.53 
1.2 3.06 0.6058975 
-4.23 3.499687 0.18 
-1.62 -0.3 -0.001394231 
0.9899999 0.48 -0.7147837 
-0.9899999 2.19 -0.7145721 
1.41 4.08 1.53 
4.23 6.499687 0.21 
-1.47 6.499687 0.39 
2.49 5.76 1.53 
-1.56 6.499687 0.09 
-2.16 3.499687 1.41 
4.62 3.499687 1.5 
4.630312 3.84 -0.51 
1.540937 -3.18 -0.27 
-2.52 5.85 -1.53 
-0.54 6.499687 1.11 
1.584383 1.17 0.18 
-1.44 6.06 -1.53 
1.44 6.18 1.53 
-0.57 1.29 -0.8484161 
-1.17 1.62 -0.6224686 
4.630312 3.57 -1.14 
1.584728 1.23 -0.18 
3.45 5.82 1.53 
-0.42 5.97 1.53 
-4.630312 4.11 0.48 
-0.63 0.66 0.8323994 
0.21 2.13 0.8971875 
-0.81 3.499687 1.23 
-1.95 3.499687 -0.39 
-1.71 6.499687 1.44 
-3.03 4.95 1.53 
1.05 5.1 -1.53 
0.48 2.19 0.8634415 
1.11 6.499687 -0.75 
-0.9899999 6.499687 0.33 
-3.21 3.499687 -0.06 
0.27 6.499687 1.02 
-0.57 6.499687 0.9899999 
-1.44 3.99 -1.53 
4.14 5.49 -1.53 
0.06 5.19 1.53 
4.41 5.4 -1.53 
0 -2.85 0.9075 
-1.59 5.25 1.53 
-0.36 0.63 0.8818545 
-1.23 4.32 1.53 
-1.68 6.499687 -0.84 
1.14 0.72 0.6390625 
-1.8 4.5 -1.53 
-2.82 6.499687 0.93 
0 -3.499687 0.42 
-0.54 6.499687 -0.51 
-2.01 3.6 1.53 
4.630312 4.11 0.69 
0.63 6.18 -1.53 
-0.06 5.4 -1.53 
-1.14 6.499687 0.48 
3.45 3.499687 0.9899999 
3.09 4.86 1.53 
-4.630312 3.96 -1.08 
1.555651 1.17 -0.24 
-0.06 -2.19 0.9042864 
0.03 2.76 -0.905625 
0.36 3.499687 -1.2 
3.72 4.32 -1.53 
2.7 4.65 -1.53 
-1.41 6.15 1.53 
4.630312 5.94 -1.32 
2.85 6.499687 -1.38 
0.15 -1.44 0.9 
3.45 6.499687 0.6 
-3.24 6.499687 -0.09 
-1.53 3.84 1.53 
0.901262 -0.21 0.75 
2.85 6.45 -1.53 
-4.23 6.499687 1.47 
-0.03 -0.84 -0.905803 
-1.23 -3.499687 -0.39 
2.7 6.499687 -1.05 
3.63 6.15 1.53 
2.13 3.499687 0.18 
-0.9899999 3.499687 1.47 
-0.81 0.12 0.785625 
-1.68 3.78 -1.53 
1.480792 -0.96 0.36 
1.555963 -3.12 -0.24 
1.2 0.69 0.605814 
1.2 2.88 0.6058035 
4.630312 4.14 1.11 
0.45 3.93 1.53 
1.605978 -1.23 -0.09 
0.33 6.499687 -0.93 
2.13 3.499687 0.87 
4.630312 4.83 1.2 
-0.48 3.499687 -0.93 
-1.02 -0.24 0.7030624 
2.79 6.42 -1.53 
0.06 2.61 -0.904259 
0.36 5.1 1.53 
-0.9899999 -0.3 0.714976 
-1.570009 -3.33 -0.21 
3.75 3.96 1.53 
-1.17 -0.09 0.6227257 
-4.630312 3.75 -0.9 
3.78 3.499687 -0.87 
1.541056 -2.67 0.27 
-1.98 4.08 -1.53 
-3.33 4.68 1.53 
3.66 3.499687 -0.24 
0.24 -3.499687 0.06 
-4.41 6.21 1.53 
-0.63 0.93 0.8322949 
1.605575 0.66 0.09 
4.41 6 -1.53 
-2.01 3.499687 -0.24 
3.66 3.499687 0.66 
-0.36 6.18 -1.53 
-4.630312 6.33 0.93 
4.630312 4.56 -1.02 
4.630312 3.66 -1.14 
-2.58 4.65 1.53 
0.48 4.44 1.53 
1.89 4.68 -1.53 
0.36 3.15 0.8815072 
2.07 4.98 1.53 
-1.2 1.98 0.6059806 
-4.47 3.51 1.53 
0.24 -3.21 -0.8952927 
0.36 -1.62 0.8815562 
3.27 3.499687 1.38 
0.48 2.55 0.8634099 
0.09 6.499687 1.14 
0.21 -3.33 0.8971875 
2.67 6.45 -1.53 
1.02 3.499687 -1.35 
1.11 5.82 1.53 
1.26 6.499687 0.84 
-1.08 1.47 0.6730369 
-2.55 5.49 -1.53 
2.4 3.499687 -1.5 
-1.596452 3.15 0.15 
0.54 1.56 0.8545238 
0.21 -2.13 0.8971875 
2.7 4.47 -1.53 
-1.14 6.499687 0.87 
4.23 3.499687 -0.93 
-2.49 4.35 1.53 
-1.62 -1.59 0.001009615 
-1.62 -2.82 0.000400641 
0.87 1.62 -0.7617188 
1.26 6.499687 -1.26 
0.63 2.28 0.8324915 
-1.615503 1.02 -0.03 
-4.56 3.499687 0.21 
-0.06 -2.67 0.9041907 
-0.39 4.41 -1.53 
-0.81 4.74 -1.53 
1.615427 3.36 0.03 
0.9 -2.28 0.750093 
4.630312 3.78 -0.09 
1.68 3.499687 -1.29 
2.37 6.499687 -0.18 
3.84 3.499687 0.27 
-2.55 3.499687 0.45 
1.32 -3.45 -0.5197676 
1.584483 0.9 0.18 
4.630312 5.7 1.32 
-4.630312 6.27 0.66 
1.08 1.44 -0.6731355 
3.06 6.499687 0.9 
1.32 4.02 -1.53 
0.3 -1.65 0.8904895 
-3.6 4.86 1.53 
3.24 4.65 -1.53 
-1.541072 2.79 -0.27 
-4.32 4.53 1.53 
1.02 3.21 -0.7033364 
-4.05 6.499687 0.57 
4.630312 4.5 -0.96 
2.97 4.62 -1.53 
1.455397 0.54 -0.39 
-3.21 6.12 1.53 
0.54 6.499687 0.84 
-3.3 5.31 -1.53 
4.630312 3.9 -1.05 
0.66 6.499687 1.17 
1.584706 0.36 -0.18 
1.41 4.23 -1.53 
0.39 2.97 -0.8766837 
1.23 4.26 1.53 
-4.5 4.14 1.53 
0.12 -2.22 -0.9010117 
2.25 4.47 1.53 
-2.16 5.91 1.53 
2.88 6.499687 0.09 
-1.47 6.499687 -0.87 
1.049774 -0.9 0.69 
-0.09 -0.66 -0.9028125 
-0.81 -3.06 0.785625 
2.64 6.499687 -1.5 
-2.76 4.17 -1.53 
0.33 1.8 -0.885764 
0.6 0.36 -0.8404687 
-2.73 3.499687 -0.75 
-1.86 3.499687 -0.06 
4.630312 5.82 -0.51 
-0.3 -3.499687 0.39 
4.05 6.499687 -0.06 
-0.9899999 5.4 1.53 
3.33 6.499687 -0.12 
0.93 2.31 0.7383418 
1.53 6.499687 -0.75 
2.55 6.499687 -0.57 
-0.84 3.15 0.7733447 
-1.430513 1.17 -0.42 
-3.78 4.68 1.53 
3.72 3.499687 0.09 
1.610787 -2.07 -0.06 
-3.12 3.499687 -0.54 
3.03 3.499687 0.57 
3.15 5.16 -1.53 
1.555804 -3.48 -0.24 
4.17 5.01 1.53 
4.41 3.87 1.53 
-0.51 3.39 -0.8592187 
0.24 -2.49 -0.8953125 
0.09 -3.499687 0.78 
2.79 5.37 1.53 
-0.66 0.87 0.8244509 
-0.18 2.79 0.8982318 
-1.77 3.99 1.53 
4.630312 4.65 0.24 
-1.89 6.36 1.53 
2.73 4.17 -1.53 
-2.7 5.82 1.53 
-0.18 -3.12 0.8982443 
0.51 5.13 1.53 
0.36 2.01 0.8817816 
-4.630312 4.44 0.27 
-1.584535 0.09 -0.18 
-2.88 3.499687 -0.09 
-0.42 3.66 1.53 
1.555781 -0.45 0.24 
0.21 2.64 0.8972028 
-4.630312 5.1 -0.09 
4.630312 6.48 1.35 
0.9 3.54 1.53 
-2.67 5.76 1.53 
-0.36 -0.84 -0.8815727 
-4.630312 4.98 0.06 
-1.92 5.19 -1.53 
3.39 5.79 1.53 
-0.06 1.83 -0.9041114 
-0.81 4.38 -1.53 
-4.53 5.07 1.53 
-0.36 3.499687 -1.32 
0.24 -3.12 -0.8954778 
0.81 0.72 -0.785625 
1.8 3.499687 1.5 
4.08 5.01 1.53 
-1.08 3.84 1.53 
-1.26 3.75 1.53 
1.92 5.55 -1.53 
1.14 0.81 0.6390625 
-3.75 3.499687 -1.23 
4.32 3.499687 -1.47 
1.11 0.03 0.6560469 
0.39 6.499687 1.14 
0.54 0.33 -0.8542726 
4.630312 4.77 -0.69 
0.75 -0.9 -0.8011525 
-4.2 5.88 -1.53 
-0.87 -3.45 -0.7618579 
0.72 6.499687 1.2 
0.18 -2.28 0.898087 
-0.69 6.499687 0.39 
3.93 6.3 -1.53 
4.630312 5.4 -0.93 
-4.26 3.499687 0.9 
-2.55 3.99 1.53 
-1.32 5.58 -1.53 
-4.56 3.499687 1.05 
-1.2 2.88 -0.6058035 
4.630312 6.06 -0.21 
-1.2 -2.25 0.6057394 
0.15 4.47 -1.53 
3.66 5.55 1.53 
-1.23 6.499687 -0.9 
-2.79 3.499687 1.47 
0.51 -3.12 -0.8586203 
-4.29 4.14 1.53 
1.570203 0.72 -0.21 
-1.59 3.499687 -0.21 
-0.39 -2.85 -0.8768563 
0.9899999 -1.68 0.7148022 
-0.03 -1.98 0.9054956 
2.55 6.499687 -0.69 
0.66 3.87 1.53 
0.81 -3.499687 -0.03 
1.26 3.27 0.5676497 
3.18 3.6 -1.53 
-1.5 6.499687 -1.53 
2.43 3.499687 0.33 
-0.72 3.499687 1.05 
3 6.48 1.53 
0.66 3.499687 -1.32 
-4.630312 5.46 -1.29 
-2.19 3.81 -1.53 
1.8 6.15 -1.53 
0.81 3.499687 -1.17 
3.93 6.499687 1.05 
0.36 -0.84 0.8815727 
-1.555771 0.75 -0.24 
0.81 -2.91 0.785625 
-3.57 4.26 -1.53 
0.18 -3.42 0.8984522 
-4.630312 5.16 -0.33 
2.46 4.59 -1.53 
-4.62 5.7 1.53 
0.12 6.3 -1.53 
3.03 3.51 1.53 
4.23 3.499687 0.9 
4.29 6.499687 -0.24 
0.93 6.499687 0.75 
1.29 -3.499687 -0.45 
-2.76 6.499687 -0.93 
-3.06 3.499687 -0.09 
-4.630312 3.54 -0.3 
-0.63 0.09 0.8323992 
0.78 6.499687 0.21 
3.48 3.499687 -0.57 
-1.32 1.98 -0.5198987 
1.29 5.34 1.53 
-1.59 3.499687 1.02 
0.84 3.03 -0.7737331 
-0.66 0.15 0.8246069 
4.630312 3.96 0.15 
-0.09 -3.3 0.9025696 
0.48 -1.5 -0.8637206 
-1.57018 1.5 -0.21 
-0.42 0.57 0.87225 
3.57 6.499687 -1.53 
1.05 1.56 0.689513 
4.630312 4.29 -0.9 
-4.630312 4.53 0.87 
-2.1 3.499687 -0.21 
3.57 3.69 1.53 
3.45 4.08 1.53 
-1.47 6.499687 0.48 
-2.67 3.499687 0.18 
-0.24 5.16 1.53 
4.2 6.499687 1.05 
0.39 5.46 1.53 
-1.89 6.499687 -1.41 
2.28 5.55 -1.53 
4.630312 5.28 -1.2 
-3.45 3.499687 -1.47 
1.570282 -2.58 0.21 
-0.69 1.35 0.8166271 
2.37 5.16 -1.53 
1.103422 -1.68 0.66 
-1.17 -0.54 0.6224719 
-3.06 3.499687 0.87 
-0.717297 0.27 -0.81 
1.38 6.499687 -0.06 
3.72 6.499687 -1.17 
-0.36 1.56 -0.8818411 
-3.48 6.499687 0.78 
-4.630312 5.91 0.09 
0.96 6.499687 0.18 
4.630312 4.92 0 
3.69 3.99 1.53 
2.22 4.8 1.53 
-0.51 1.23 -0.8590251 
-1.480765 0.36 -0.36 
-0.27 3.36 -0.8940229 
0.06 3.33 0.9040539 
-4.53 6.499687 -0.51 
-1.555785 -2.94 0.24 
4.630312 5.58 -0.54 
3.18 4.47 1.53 
-2.31 4.74 1.53 
-1.11 3.499687 -0.66 
-1.606066 -0.54 -0.09 
0.9899999 5.4 -1.53 
4.5 5.37 -1.53 
-0.57 -0.84 -0.848021 
0.15 6.42 1.53 
1.14 -0.96 0.6390625 
1.26 -1.29 -0.5674082 
1.92 3.69 -1.53 
-3 6.499687 0.9 
1.050337 0.3 0.69 
-3.45 3.499687 0.66 
4.38 3.499687 -0.45 
-4.630312 4.44 -0.12 
4.56 5.73 -1.53 
-0.27 2.28 0.8942384 
4.630312 3.81 -1.38 
4.630312 5.28 0.24 
1.555443 -1.53 0.24 
1.71 6.499687 0.39 
1.41 -2.1 0.4441887 
-2.85 5.73 -1.53 
-1.102641 -0.87 0.66 
-0.06 -2.43 -0.9038541 
-3.36 3.499687 -0.9899999 
-1.54123 -2.64 0.27 
0.51 3.499687 -1.2 
-1.77 3.6 1.53 
3.3 5.1 1.53 
-0.27 4.8 1.53 
0.39 5.01 -1.53 
0.51 2.01 0.8590248 
4.38 4.8 1.53 
0.72 4.98 -1.53 
3.63 4.26 1.53 
2.52 3.499687 -0.36 
-4.630312 4.47 -0.51 
-4.630312 5.91 -0.9899999 
-0.96 -2.4 -0.7263524 
0.18 2.04 0.8982036 
-2.58 6.499687 -0.45 
-0.66 5.55 -1.53 
-0.24 6.499687 -1.2 
3.27 6.33 -1.53 
0.93 1.86 0.7383717 
-1.480823 -0.75 0.36 
-2.19 6.499687 -1.17 
-1.5 1.29 -0.3366587 
1.555869 1.86 -0.24 
1.62 0.39 0 
3.75 3.499687 -1.53 
-2.31 5.31 1.53 
1.555469 -2.88 -0.24 
2.07 3.499687 0.24 
3.39 6.499687 -0.87 
4.47 6.499687 -0.9 
-0.81 5.55 -1.53 
2.85 3.499687 1.41 
0.06 2.91 0.9041282 
1.610492 0.63 -0.06 
1.47 -3.499687 -0.27 
2.55 3.72 1.53 
-3.57 3.499687 -0.36 
-2.64 6.499687 0.48 
-0.601875 -1.44 0.84 
-0.51 -0.9899999 -0.8590571 
-1.08 5.13 -1.53 
2.4 3.499687 0.66 
4.59 4.05 -1.53 
-4.630312 5.91 1.29 
-3.09 4.98 1.53 
4.02 5.76 -1.53 
-3.72 6.42 1.53 
1.86 3.499687 -0.51 
-4.630312 5.28 -1.35 
-1.92 5.76 1.53 
-1.256626 -3.03 0.57 
0.87 6.499687 -0.69 
-3.51 6.45 -1.53 
-1.44 4.86 1.53 
-3.09 3.499687 -0.63 
0.7175641 -0.57 0.81 
0.63 6.499687 1.08 
4.630312 4.89 0.18 
2.34 3.99 1.53 
0.33 -3.499687 0.75 
-0.72 6.499687 -0.84 
0.78 4.23 -1.53 
3.42 5.13 -1.53 
3.96 5.52 1.53 
-3.54 4.86 -1.53 
-1.610623 -2.46 0.06 
1.05 4.11 -1.53 
4.630312 5.73 1.17 
-0.51 1.59 -0.8590745 
-1.540946 2.04 0.27 
-0.09 0.09 -0.9024971 
2.31 3.93 -1.53 
3.18 4.62 -1.53 
3.48 3.66 1.53 
4.38 4.02 1.53 
3.84 6.33 1.53 
4.630312 5.97 0.72 
1.53 5.28 -1.53 
4.630312 4.98 -1.05 
0.54 -2.13 -0.8543683 
-1.103454 -0.66 -0.66 
4.630312 3.72 0.12 
0.57 4.83 -1.53 
3.75 5.7 1.53 
0.39 4.44 -1.53 
3.15 6.499687 -0.12 
2.07 5.7 1.53 
-1.44 5.34 1.53 
-2.58 3.499687 -1.29 
-0.24 4.71 -1.53 
3.03 3.499687 0.69 
1.23 -0.72 -0.5891877 
-1.11 6.499687 1.2 
-2.76 5.85 1.53 
-3.45 3.96 1.53 
-0.72 6.499687 1.5 
0.9 0.96 0.7501041 
-0.75 6.499687 0.93 
-0.96 6.499687 -0.39 
1.26 -3.15 -0.5681621 
-0.24 1.86 -0.8953865 
2.25 6.499687 1.02 
1.605883 -3 -0.09 
3 4.53 -1.53 
1.480823 0.75 0.36 
-1.17 6.27 -1.53 
0.12 -3.499687 -0.39 
0.21 6.499687 0.84 
-4.2 4.44 -1.53 
-0.51 6.499687 0.96 
3.72 3.499687 0 
4.62 6.33 1.53 
-0.51 4.32 -1.53 
-3.63 4.95 -1.53 
0.03 -2.79 0.905625 
1.26 -2.31 -0.5682414 
-4.41 6.42 1.53 
-4.630312 4.17 -0.24 
0.18 6.499687 1.02 
0.24 4.71 -1.53 
-0.57 -2.94 0.8483458 
1.17 -2.73 0.6228655 
1.32 1.44 0.5196875 
-2.13 6.21 1.53 
0.57 1.02 0.8482606 
-1.11 4.08 1.53 
-0.84 5.16 1.53 
-3.9 3.499687 -0.93 
1.11 5.4 1.53 
-1.54113 -2.58 -0.27 
2.43 6.499687 0.93 
0.81 1.23 0.785625 
2.79 3.499687 -0.03 
4.32 6.06 1.53 
0.69 6.499687 0.15 
1.08 0.96 -0.6731994 
0.9 5.28 1.53 
2.37 5.85 -1.53 
-0.51 0.15 0.8591012 
0.84 0.45 0.7737908 
1.17 1.44 0.6225 
1.26 0.21 -0.5675842 
-1.47 6.33 1.53 
0.96 3.499687 -1.53 
4.630312 5.79 -1.17 
0.03 -3.03 -0.905944 
3.3 4.98 1.53 
-0.24 3.499687 -1.29 
0.9899999 2.97 0.715003 
-2.7 3.499687 0.42 
1.584843 2.46 -0.18 
4.630312 5.7 0.81 
2.07 5.79 -1.53 
-0.9899999 1.29 0.7146394 
1.5268 -1.65 0.3 
-0.12 6.15 -1.53 
-3.3 3.499687 0.96 
1.05 6.499687 -0.27 
1.606047 -0.75 0.09 
0.66 -1.26 0.8247002 
0.18 3.24 -0.8982673 
2.64 6.499687 0.06 
-2.19 3.499687 1.47 
1.11 1.44 0.6560318 
1.14 -2.79 -0.6390625 
0.66 3.18 -0.8244061 
4.630312 5.46 1.47 
2.16 3.499687 -1.53 
0.3 6 1.53 
-3.96 5.82 -1.53 
-3.15 6 -1.53 
-1.605785 1.05 -0.09 
-1.610748 -1.44 -0.06 
3.39 6.499687 1.32 
-0.3 3.9 -1.53 
-1.38 -2.37 0.4714479 
-1.2 -1.92 -0.6058334 
-1.62 5.7 1.53 
-2.46 5.55 1.53 
-2.52 3.499687 -1.08 
1.86 3.499687 0.45 
-1.05 -3.499687 0.15 
0.39 2.64 -0.8773222 
0.18 1.71 0.8983978 
-4.5 4.8 -1.53 
0.12 -1.32 -0.9010685 
-0.81 0.42 0.785625 
-1.26 -2.7 -0.568125 
3.69 4.26 -1.53 
1.08 0.69 -0.6730156 
0.84 5.01 1.53 
-0.69 -1.17 0.8164895 
2.43 4.26 1.53 
-4.5 4.98 1.53 
-3.81 6.499687 -1.17 
4.630312 4.47 0.51 
1.23 6.499687 0.15 
-1.455337 -0.81 0.39 
0.84 1.17 -0.7735496 
-0.9015224 2.19 0.75 
0.84 1.59 0.7735957 
-3.36 4.44 1.53 
-4.630312 3.93 1.17 
-1.5 3.499687 -0.87 
-4.53 6.499687 0.9 
-1.35 -3.24 0.4956716 
1.38 5.76 1.53 
-0.36 4.98 1.53 
3.15 6.499687 -0.9 
1.59 6.499687 -1.47 
1.41 2.07 0.4444396 
-0.24 0.93 -0.8954936 
4.630312 4.68 -0.33 
-1.569915 -1.71 0.21 
-1.11 -3.499687 -0.21 
-0.93 1.68 -0.7385107 
-0.09 6.48 1.53 
-0.57 -3.18 -0.8483413 
-0.45 6.499687 -1.47 
3.87 6.499687 0.18 
-0.75 3.24 0.8014975 
-2.01 6.499687 -1.23 
-3.87 3.499687 -1.32 
0.75 -1.74 0.8012174 
-2.88 6.499687 -1.53 
4.2 5.85 1.53 
0.96 -2.22 0.7263557 
-0.24 -1.44 -0.8953125 
-0.06 2.46 0.9039217 
-0.9013416 0.66 0.75 
3.18 6.499687 1.26 
1.92 6.499687 -0.69 
1.540937 1.41 0.27 
-2.88 3.499687 1.32 
0.15 -0.18 0.8998642 
-3.81 3.499687 0.9899999 
0.27 0.66 0.8935668 
-1.29 4.44 1.53 
0.36 3.66 -1.53 
1.38 0.9899999 0.4715537 
1.35 3.499687 -1.38 
3.81 6.499687 -1.26 
1.615154 -2.4 -0.03 
0.78 5.28 1.53 
-1.17 -2.25 -0.6227386 
-1.26 0.63 -0.5679713 
-0.54 -3.499687 -0.03 
-0.63 6.36 -1.53 
-2.22 3.96 1.53 
-0.75 -0.51 0.801289 
-4.62 6.09 1.53 
-3.69 3.499687 1.26 
-3.48 5.46 1.53 
-3.66 6.499687 -0.42 
4.630312 6.33 1.17 
0.81 0.12 -0.785625 
2.13 3.499687 -1.08 
-1.615222 -3.3 -0.03 
-2.88 4.2 1.53 
2.37 4.23 1.53 
-3.48 3.499687 -0.03 
4.05 4.92 1.53 
0.9899999 -1.17 -0.7149645 
-1.103217 -0.27 0.66 
-4.630312 5.22 -0.3 
0.87 -1.2 0.7617188 
-0.51 4.8 1.53 
-2.25 6.499687 -1.47 
-0.84 3.27 0.77385 
4.14 6.499687 -0.9899999 
1.570131 2.73 0.21 
0.87 5.58 1.53 
-2.58 4.53 1.53 
0 -3.499687 -0.81 
-1.08 1.05 -0.6730653 
2.46 4.5 1.53 
-4.38 6.36 -1.53 
-3.36 3.72 -1.53 
3.72 5.4 -1.53 
0.48 -0.81 -0.8633707 
3.09 5.19 -1.53 
-1.405274 -2.34 -0.45 
-0.57 -3.42 0.8483493 
-0.06 0.54 -0.90429 
0.84 -1.98 -0.7738494 
0.84 5.52 1.53 
1.294513 0.03 0.54 
3.9 5.67 -1.53 
1.83 4.35 -1.53 
-1.23 3.96 1.53 
3 6.499687 0.93 
3.66 5.22 1.53 
3.69 6.499687 0.09 
-0.48 3.36 0.8636745 
0.15 5.16 -1.53 
-2.43 3.87 1.53 
-1.527207 -2.52 0.3 
-2.04 5.43 1.53 
-0.6 6.499687 -0.81 
1.56 6.499687 -1.53 
-4.23 6.499687 1.17 
3.66 5.52 -1.53 
-0.87 2.49 0.7617188 
-2.85 6 1.53 
-0.27 -2.58 0.8941308 
2.31 5.67 -1.53 
-4.2 5.07 -1.53 
0.84 3.81 1.53 
4.630312 6.15 -1.5 
-1.17 -1.98 0.6224497 
2.43 6.499687 0.78 
1.02 -0.15 -0.703151 
-1.26 3.39 -0.5677415 
-4.56 3.499687 0 
-1.38 5.16 -1.53 
-0.24 -0.72 0.8953125 
-0.51 3.03 0.8586442 
-0.57 -2.7 0.8480828 
3.87 6.499687 0.33 
4.630312 6.36 -1.35 
-2.91 6.09 -1.53 
4.44 4.14 1.53 
-3.33 5.73 -1.53 
1.596727 1.08 0.15 
0.03 6.499687 0.75 
4.35 4.89 1.53 
-0.24 5.58 1.53 
-4.38 4.5 1.53 
-4.5 4.17 -1.53 
2.82 5.64 1.53 
-0.51 -2.43 0.8589756 
3.03 3.499687 -1.38 
0.12 2.94 0.9010496 
-4.14 3.54 -1.53 
-0.45 6.499687 0.24 
2.49 3.499687 -0.09 
1.68 3.499687 1.14 
0.84 0.18 0.7737094 
3.6 6.499687 1.11 
-1.5 2.82 -0.3370813 
-1.38 -1.26 -0.4714736 
0.93 5.34 1.53 
-4.17 6.499687 -0.12 
1.11 1.5 -0.65625 
0.69 -2.91 -0.8164992 
-3.15 6.499687 -0.3 
0.69 4.83 1.53 
-3.33 3.499687 0.9 
-1.05042 3.36 0.69 
-1.65 6.499687 -1.17 
2.07 6.12 1.53 
-3.57 6.499687 1.29 
-1.92 5.01 -1.53 
-2.01 6.499687 -1.02 
-0.9899999 -3.499687 -0.63 
-2.85 3.499687 -0.87 
-1.615464 2.34 -0.03 
4.47 5.28 -1.53 
4.23 5.49 1.53 
-3 6.03 -1.53 
0.75 5.52 -1.53 
4.47 3.499687 0.84 
-2.19 6.499687 1.32 
-1.02 3.3 0.7030008 
-1.05 -3.3 0.6894648 
0.63 5.73 -1.53 
2.76 6.499687 0.06 
1.89 5.7 1.53 
-0.84 5.49 -1.53 
3.72 4.5 -1.53 
1.606163 0.84 -0.09 
-3.54 5.13 1.53 
-1.86 3.499687 -1.35 
4.630312 6.21 0.3 
-2.37 3.499687 -1.23 
-0.06 -3.499687 -0.48 
-4.630312 4.02 -0.42 
1.610773 -1.41 -0.06 
-3.57 6.499687 -0.9 
3 3.499687 -0.81 
-1.430165 1.77 -0.42 
1.32 -3.27 0.519899 
1.44 5.31 -1.53 
-0.33 0.21 -0.8857692 
-4.11 6.499687 0.27 
-4.47 6.499687 -0.3 
4.56 3.499687 -0.03 
-4.630312 5.61 0.93 
1.430458 1.47 -0.42 
4.630312 3.78 -0.93 
-0.48 3.6 -1.53 
0.12 2.13 -0.9009569 
-4.630312 6.3 0.06 
-4.44 3.57 1.53 
-0.18 0.12 -0.8985577 
2.58 3.499687 -0.81 
2.7 3.499687 0.54 
-1.38 1.95 0.471925 
0.81 -3.39 0.785625 
-1.480496 -2.01 -0.36 
-4.62 3.499687 -1.53 
0.09 2.04 -0.9023581 
-2.94 6 1.53 
-0.69 3.06 0.8168905 
-0.36 -0.48 0.8814263 
-1.14 3.499687 1.17 
3.66 3.499687 0.81 
1.89 6.499687 -1.05 
3.39 6.45 1.53 
-0.78 2.22 -0.7931469 
0.48 -2.4 -0.8637446 
-4.62 6.499687 -0.51 
0.87 3.27 0.7620223 
1.14 2.19 -0.6390107 
4.630312 3.81 -1.02 
-0.81 4.2 -1.53 
-1.5 6.499687 0.33 
-0.96 6.15 -1.53 
1.41 3.499687 -0.84 
-1.26 1.14 -0.5676872 
3.81 3.499687 -1.44 
-2.46 6.499687 -0.6 
-3.33 5.4 -1.53 
1.71 6.33 1.53 
-0.06 3.48 -0.9041699 
-1.610822 -0.33 0.06 
1.480326 -2.13 0.36 
1.2 0.78 0.6058543 
0.39 3.39 0.8771199 
-0.69 3.499687 0.96 
0.09 3.499687 -1.35 
4.11 4.77 1.53 
-1.26 0.3 -0.5675524 
-1.68 3.499687 -0.06 
2.1 4.29 -1.53 
-3.99 5.22 1.53 
-0.18 5.13 -1.53 
3.9 4.77 1.53 
-1.53 3.499687 0.84 
-1.570313 -0.75 0.21 
-1.541205 0.69 0.27 
-3.15 6.499687 -1.41 
3.9 4.68 -1.53 
0.51 3 0.858882 
-0.57 2.76 0.8483692 
1.59 6.499687 -0.45 
3.48 3.499687 0.9 
-2.73 4.44 1.53 
-1.527131 2.22 -0.3 
1.17 4.11 -1.53 
4.35 6.499687 1.14 
-4.630312 3.66 -0.51 
1.32 4.56 1.53 
0.78 5.94 1.53 
0.57 3.63 1.53 
0.21 5.55 -1.53 
-0.63 -1.2 -0.8324973 
1.540937 2.94 -0.27 
-0.09 6.499687 0.3 
0.33 3.42 0.8858244 
-1.540998 -0.72 -0.27 
-3.33 3.499687 -0.9 
2.13 6.499687 -0.84 
-3.3 3.499687 -0.96 
-0.36 -2.01 0.8817816 
-2.73 6.499687 1.11 
4.630312 5.55 0.6 
1.8 3.499687 1.05 
3.87 3.75 1.53 
-3.3 6.499687 -0.36 
-4.2 6.06 1.53 
-1.17 5.13 1.53 
0.66 -2.7 0.8244105 
1.86 6.499687 0.87 
0.75 -3.18 -0.8015544 
0.24 5.73 -1.53 
-1.32 -3.499687 -0.51 
-1.8 5.55 1.53 
4.630312 5.61 -0.03 
-1.41 3.36 0.4440558 
-3.12 3.9 1.53 
-4.630312 3.51 0.15 
-2.91 6.499687 -1.2 
0.21 0.72 0.8971875 
-0.06 0.54 0.9043406 
-1.526727 -0.33 -0.3 
-2.85 6.499687 1.02 
-3.27 6.499687 1.47 
-2.79 6.499687 -1.29 
1.23 3.51 1.53 
3.63 6.499687 0.12 
-0.63 -2.25 -0.8324555 
-0.12 5.37 -1.53 
0.03 3.21 0.9055451 
1.569876 -2.07 0.21 
-4.35 3.499687 1.29 
1.156466 -0.3 0.63 
1.430205 1.74 0.42 
-1.605928 -0.09 -0.09 
-4.630312 6.03 0.42 
0.48 0.69 0.8637176 
0.51 0 0.8588271 
-0.87 -3.03 0.7619329 
1.35 -3.39 -0.4959821 
-1.62 6.499687 0.33 
1.68 3.9 1.53 
-1.17 -1.44 0.6225 
-2.13 3.499687 -0.81 
-1.605805 -0.39 -0.09 
-0.63 -1.47 -0.8323959 
1.11 5.31 1.53 
1.14 1.89 0.6390625 
-1.71 6.499687 0.84 
0.24 3.66 1.53 
-3.9 6.27 -1.53 
1.92 3.499687 1.44 
-1.38 3.499687 -1.11 
-2.22 6.499687 -0.54 
-1.480487 -1.56 0.36 
2.49 3.499687 0.36 
-0.81 0.24 -0.785625 
-1.29 1.92 -0.5436837 
1.5 -2.22 -0.3367027 
1.38 1.98 0.4719627 
0.75 5.22 1.53 
-1.02 3.99 1.53 
1.05 3.45 0.6899356 
1.38 0.84 0.4718069 
4.630312 4.32 0.9 
0.18 2.97 0.8980867 
-1.05 -0.18 0.6898597 
-2.13 5.25 -1.53 
-0.03 -0.96 -0.905625 
-3.03 3.499687 -0.96 
4.5 4.17 1.53 
0.45 0.75 0.86787 
4.05 3.57 1.53 
3.9 6.499687 -0.6 
0.48 -2.58 0.8635015 
-0.69 -2.82 0.8165402 
2.13 6.499687 -0.72 
-4.08 4.35 1.53 
1.555781 -0.42 -0.24 
-4.02 4.41 1.53 
4.630312 5.58 -1.53 
-1.86 6.06 1.53 
-1.17 5.16 -1.53 
-4.630312 6.12 -0.51 
-0.15 6.45 1.53 
4.630312 6.06 -0.84 
0.69 -1.41 0.8164475 
1.62 4.92 -1.53 
-4.17 5.07 1.53 
1.14 3.3 -0.6390194 
-4.59 6.45 -1.53 
-1.527187 0.75 -0.3 
1.610356 -1.86 -0.06 
-4.630312 3.81 -1.47 
-1.11 6.499687 -0.06 
1.480495 0.18 -0.36 
0.63 -1.71 -0.8323505 
-0.33 -2.76 0.8856624 
1.59 6.33 1.53 
0.39 -2.88 -0.8769271 
-2.13 3.499687 0.21 
-0.69 6.499687 1.44 
0.72 3.499687 -1.35 
0.72 -3.499687 -0.48 
-2.88 3.499687 0.18 
1.29 4.65 1.53 
-1.71 3.499687 -0.21 
2.07 3.57 -1.53 
-1.62 -1.71 0 
-0.48 4.62 1.53 
1.8 4.65 1.53 
-4.630312 5.82 0.54 
-4.630312 6.48 -1.05 
-2.52 6.499687 -1.44 
0.9899999 -0.84 0.7147237 
2.82 3.499687 0.66 
1.23 1.71 0.5891864 
-0.75 -3.499687 -0.66 
2.73 4.83 1.53 
2.61 3.75 1.53 
2.88 6.499687 -1.02 
-0.27 -3.12 0.8939218 
-0.57 -1.59 -0.8482975 
-1.615363 3.12 -0.03 
2.1 3.499687 -1.32 
0.24 -3.15 0.8954968 
-1.5 3.499687 0.63 
2.25 4.95 -1.53 
1.2 1.92 -0.6058334 
-0.69 4.62 1.53 
1.05063 -3.15 0.69 
2.61 3.54 1.53 
-3.15 6.499687 -1.29 
0.96 -2.49 0.7266887 
2.67 6.499687 -1.17 
-3.48 3.84 -1.53 
-1.14 1.86 0.6390625 
-2.79 6.499687 -1.53 
-1.56 3.93 -1.53 
-1.41 6.27 -1.53 
-1.555921 2.22 -0.24 
1.527277 1.74 0.3 
1.17 6.499687 -1.14 
-0.24 -1.14 -0.8952488 
-3.57 3.66 -1.53 
-1.8 4.98 -1.53 
-0.75 -1.68 -0.8012655 
0.9899999 -1.83 0.714976 
2.37 5.76 1.53 
2.43 3.499687 0.03 
1.5 1.89 0.3371815 
3.3 6.499687 0.87 
-1.59 3.499687 -1.29 
-1.570011 -0.45 0.21 
-2.85 5.58 1.53 
0.84 5.91 1.53 
0.21 6.499687 0.24 
-0.36 0.63 -0.8818002 
4.630312 5.19 -0.63 
-2.82 5.52 1.53 
1.62 3.3 0 
-2.4 6.499687 -1.35 
-3.48 6.499687 -1.05 
0.75 4.8 1.53 
4.17 5.19 -1.53 
-3.42 5.28 1.53 
-0.21 -3.06 0.8971875 
4.630312 5.7 -0.36 
3.39 6.499687 -1.08 
1.83 5.55 -1.53 
-4.630312 3.51 0.51 
1.17 6.21 1.53 
0 1.47 0.9075 
1.02 -2.04 -0.7033398 
1.049255 1.5 -0.69 
2.67 3.499687 -1.32 
-1.2 -0.18 -0.6058198 
-1.11 4.8 1.53 
-1.89 6.499687 0.84 
-1.65 6.499687 -0.27 
4.630312 4.56 0.54 
-1.23 3.499687 1.41 
-4.2 3.499687 1.32 
1.14 6.33 -1.53 
-1.26 0.09 -0.56754 
4.630312 5.7 -0.96 
-0.51 -1.02 0.8588012 
0.87 6.09 -1.53 
4.630312 5.52 1.02 
-2.49 6.499687 -1.5 
4.630312 3.69 -0.27 
-0.36 1.41 0.8814152 
0.51 -0.93 0.8592065 
-0.87 -2.64 -0.7620029 
-1.35 -1.23 0.4957826 
-1.17 0.39 -0.6226796 
0.33 3.499687 1.2 
1.29 -3.499687 0.15 
-1.480862 -2.73 -0.36 
-4.630312 5.34 -1.29 
-0.63 2.82 0.8324181 
-4.630312 4.05 0 
-4.630312 4.47 -1.38 
2.85 4.41 -1.53 
-0.63 -3.15 -0.8324795 
-0.3 3.78 -1.53 
3.96 4.92 -1.53 
-4.41 6.499687 1.5 
0.57 3.499687 0.9 
-2.88 6.03 -1.53 
-4.11 6.45 1.53 
-4.630312 5.49 -1.47 
-0.33 6.499687 1.08 
3.33 3.499687 1.35 
4.35 3.499687 0.09 
3.9 5.01 -1.53 
-4.29 6.499687 0.45 
0 6.499687 -0.9899999 
-0.69 2.49 -0.8164824 
0.66 1.23 0.8244534 
0.48 6.499687 -0.39 
-0.63 5.19 1.53 
-2.46 6.499687 -1.05 
4.17 4.8 -1.53 
1.68 5.37 -1.53 
4.630312 6.03 -0.93 
-3.15 4.02 1.53 
3.18 4.11 -1.53 
0.48 0.45 0.8634562 
0.3 6.499687 -0.51 
1.23 0.9899999 -0.5890571 
-2.04 6.499687 0.33 
-3.66 3.499687 -0.69 
-1.541213 0.87 0.27 
1.5 3.51 1.53 
4.630312 5.4 -0.75 
0.21 6.36 1.53 
-2.82 3.499687 0.15 
-1.68 4.95 1.53 
3.03 6.3 1.53 
-2.55 3.499687 0.27 
-1.8 6.09 1.53 
-1.14 3.87 1.53 
0 1.92 0.9075 
-2.16 6.03 1.53 
-4.26 4.38 -1.53 
-4.5 6.499687 -0.42 
-0.69 3.499687 1.23 
4.32 4.05 1.53 
3.96 3.499687 -1.05 
2.58 6.499687 0.75 
4.630312 5.94 -0.42 
1.02 1.56 -0.7030317 
0.51 1.11 -0.8589343 
-0.06 -0.81 0.9044092 
-1.08 1.47 -0.6731399 
1.605736 3.33 0.09 
-2.25 3.84 -1.53 
0.9899999 6.499687 -1.08 
-0.54 0.12 -0.8547195 
-0.12 5.82 -1.53 
-0.48 0.9 0.8633654 
0.9899999 -1.38 0.7149116 
1.02 -2.52 0.7034759 
3.36 6.499687 -0.18 
0.63 3.499687 -1.38 
-0.9013475 0.45 -0.75 
3.39 6.27 -1.53 
-4.630312 5.28 0.69 
-3.36 3.499687 -0.36 
1.430279 -0.21 -0.42 
-1.17 6.15 -1.53 
-1.65 3.499687 0.75 
1.527026 1.35 0.3 
4.630312 5.43 -0.66 
1.294253 0.66 -0.54 
0.9899999 6.48 1.53 
-2.52 3.499687 0.69 
0.66 0.93 0.8244763 
4.47 4.95 -1.53 
-0.39 6.499687 -0.69 
-1.11 3.96 1.53 
-1.17 -1.17 -0.6225 
-2.4 5.97 -1.53 
0.3 0.84 -0.8903619 
-3.78 3.499687 0.54 
1.08 -0.03 0.672945 
4.23 5.67 1.53 
0.69 -1.38 -0.8167907 
-2.67 4.2 -1.53 
-4.630312 5.79 1.23 
3.24 6.499687 0.33 
0.81 0.24 0.785625 
-4.2 6.499687 -0.33 
1.8 3.75 -1.53 
2.88 6.499687 1.08 
4.38 5.13 -1.53 
-3.63 5.55 -1.53 
-4.08 6.18 -1.53 
1.5 -1.98 -0.337007 
-2.85 6.21 -1.53 
1.29 -1.98 -0.5434502 
1.08 -3.48 0.6729939 
3.66 5.13 1.53 
0.39 3.24 0.8767574 
3.15 6.499687 0.87 
-0.36 -2.22 0.8814077 
-1.11 3.499687 1.11 
-1.05 -1.77 0.6899781 
4.630312 5.73 -1.23 
3.96 5.16 1.53 
0.06 -3 0.9041523 
4.11 3.96 1.53 
0.81 6.499687 -1.29 
0.9899999 2.43 0.7148307 
4.630312 6.15 -0.57 
1.38 -2.91 0.4714955 
0.42 3.51 1.53 
-1.08 6.3 1.53 
-1.56 3.499687 1.32 
0.57 6.499687 0.3 
4.630312 4.95 1.14 
3.51 6.499687 1.35 
0.45 5.34 1.53 
-0.75 2.31 -0.8015499 
-0.09 6.499687 1.05 
4.630312 5.04 -0.72 
1.41 5.61 1.53 
-1.89 4.65 1.53 
4.630312 6.06 1.32 
0.9899999 3.499687 -1.08 
0.78 4.77 -1.53 
-1.11 4.83 -1.53 
1.11 -0.81 -0.6558728 
-1.480654 -0.87 0.36 
-1.570206 2.04 -0.21 
1.62 -0.12 0 
1.17 6.499687 -0.48 
-3 3.499687 0.51 
-0.57 0 -0.8479688 
-4.630312 4.26 -0.9899999 
-3.78 6.499687 1.29 
-4.630312 5.43 0.48 
2.31 6.499687 -1.32 
0.81 -2.43 -0.785625 
-4.630312 4.05 -0.57 
-2.4 6.48 -1.53 
-0.81 6.15 -1.53 
1.455313 0.09 -0.39 
-2.1 6.499687 0.36 
0.54 6.499687 -0.42 
1.210079 1.62 0.6 
-0.87 6.499687 -0.9 
2.97 5.37 -1.53 
-4.5 6.21 1.53 
-0.3 2.37 0.8905253 
-0.66 3.499687 0.9 
4.05 4.26 1.53 
1.83 6.499687 0.57 
-3.75 6.499687 -0.39 
-0.45 -3.499687 0 
0.48 4.83 1.53 
-1.56 5.76 -1.53 
2.16 6.499687 -0.96 
3.78 3.51 1.53 
-0.78 3.499687 -1.26 
-1.541059 -0.93 0.27 
1.606067 -0.09 -0.09 
-4.35 6.499687 0.78 
-0.9899999 -0.33 -0.7150331 
4.29 3.499687 0.87 
-2.58 6.499687 0.45 
3.78 6.499687 1.14 
-1.527133 -3.03 -0.3 
0.51 3.36 -0.8590122 
-0.63 -1.8 0.8322773 
-1.61038 0.09 -0.06 
-2.07 6.03 1.53 
-0.09 3 0.9027963 
-4.08 6.499687 -0.66 
-0.27 3.499687 1.02 
2.58 6.499687 0.03 
-0.45 -3.499687 -0.69 
-1.14 6.499687 -1.38 
-0.63 3.499687 1.47 
1.58444 -2.64 -0.18 
-0.9 5.52 -1.53 
-4.08 3.499687 -1.17 
0.9899999 -3.499687 0.63 
1.56 5.7 -1.53 
2.4 5.79 -1.53 
0.81 -2.34 -0.785625 
4.630312 6.12 -1.41 
1.83 6.499687 1.23 
3.12 4.77 1.53 
0.39 3.96 1.53 
4.38 6.499687 1.23 
-1.29 6.12 -1.53 
0.54 2.31 0.8543965 
-1.369921 1.08 0.48 
-4.630312 5.07 -0.3 
1.103221 -1.59 -0.66 
2.73 3.499687 -0.06 
-3.09 4.41 -1.53 
-0.48 6.499687 -0.33 
-2.13 3.66 -1.53 
-1.44 3.499687 -0.84 
0.48 -1.44 0.8636307 
-2.01 3.499687 0.9899999 
-4.630312 6.45 0.63 
3.39 5.07 -1.53 
3.84 3.499687 -0.84 
0.93 -3.499687 0.48 
-1.156575 -0.18 0.63 
-2.4 3.99 -1.53 
4.630312 6.18 -0.39 
-1.569924 -1.65 -0.21 
0.87 3.499687 1.26 
-2.91 4.44 -1.53 
1.56 3.499687 -0.9 
0.9899999 -3.499687 -0.69 
-0.45 1.26 -0.8678948 
1.541034 1.59 0.27 
-2.28 5.91 1.53 
2.46 5.28 1.53 
1.32 -2.67 -0.5197824 
-2.25 6.499687 -0.9899999 
-3.3 3.66 -1.53 
-4.23 6.499687 1.05 
-4.630312 4.05 -0.21 
-1.38 -1.86 -0.471522 
2.55 6.499687 1.05 
-1.71 4.83 1.53 
4.23 3.499687 -1.53 
2.91 4.38 1.53 
-0.3 -2.85 0.8907345 
0.9899999 3.48 0.7147068 
4.630312 4.32 -0.54 
4.17 3.499687 -1.23 
1.505942 -1.11 -0.33 
0.03 -2.13 -0.9060003 
-1.62 -3.36 0.001357759 
2.94 6.499687 -1.35 
-3.36 4.95 -1.53 
-3.96 5.73 -1.53 
4.08 6.499687 1.32 
-1.430436 2.46 -0.42 
-3.57 3.499687 -1.47 
0.93 4.11 -1.53 
-0.78 4.98 -1.53 
1.32 -1.44 0.5196875 
1.65 5.91 -1.53 
-2.91 3.499687 -0.33 
1.294972 -1.26 0.54 
0.63 -3.27 0.8323851 
0.27 6.499687 -1.14 
0.9899999 -2.91 0.7149393 
-4.630312 5.43 0.93 
-1.555904 2.97 0.24 
-4.630312 5.58 1.11 
4.630312 6.09 1.38 
-1.44 4.41 1.53 
-1.210724 0.78 0.6 
-1.62 6.499687 -1.53 
-0.9899999 -3.499687 0 
-0.9002137 1.44 -0.75 
2.4 6.21 -1.53 
1.615479 0.33 -0.03 
-1.584794 1.44 -0.18 
1.92 6.499687 1.44 
-1.584375 -2.58 0.18 
1.08 6.499687 0.48 
1.83 6.499687 -0.66 
-1.541188 2.88 0.27 
1.26 -1.77 -0.5677937 
-4.17 4.17 1.53 
-1.35 -2.43 0.4956061 
-1.56 4.8 -1.53 
-2.82 5.04 1.53 
-1.59 -3.499687 0.03 
-1.257562 -1.23 -0.57 
-1.05 2.46 0.6896018 
3 3.9 1.53 
1.35 3.499687 -1.05 
4.23 6.499687 0.78 
2.73 6.499687 1.05 
0.09 6.499687 0.72 
-1.32 4.14 -1.53 
-1.77 6.499687 -0.75 
-1.08 -3.499687 0.66 
-3.78 4.89 1.53 
0.24 0.81 0.8953125 
1.32 3.499687 -1.29 
-4.630312 5.94 0.78 
1.26 -1.86 0.56774 
-4.32 6.33 -1.53 
-4.630312 6.45 -0.9899999 
3.69 5.4 1.53 
2.76 3.69 -1.53 
0.06 -2.19 0.9042978 
1.62 0.75 0 
2.79 4.2 -1.53 
1.65 6.499687 -0.87 
-4.630312 5.61 -1.35 
2.1 3.499687 0.42 
1.11 1.56 0.6563479 
-0.42 6.499687 -1.2 
-2.58 4.86 1.53 
-0.03 6.499687 0.81 
4.630312 5.25 1.02 
-3.75 6.27 -1.53 
-4.14 6.499687 -0.06 
0 -0.54 0.9075 
1.17 5.46 1.53 
4.630312 5.61 0.15 
-1.60125 0.12 -0.12 
-2.61 3.54 -1.53 
-1.26 6.48 -1.53 
-0.57 2.19 0.8484348 
-0.84 1.38 -0.7734552 
4.630312 5.43 -1.08 
4.05 3.78 -1.53 
-1.02 -1.11 -0.7028455 
-0.39 2.64 -0.8772359 
0.66 3.499687 -1.47 
0.03 -1.23 -0.9058573 
-3.45 4.29 1.53 
-1.555405 1.98 -0.24 
0.69 -2.4 0.8165571 
0.27 2.97 0.894238 
-3.87 3.499687 0.69 
-3.36 6.03 1.53 
-0.6 3.499687 -1.35 
-1.405402 -2.7 -0.45 
1.77 3.499687 0.57 
4.53 4.77 -1.53 
-1.02 5.16 -1.53 
1.6059 -2.76 0.09 
-1.17 0.27 0.6225 
2.64 3.93 1.53 
4.56 5.88 1.53 
-1.480892 3.24 0.36 
1.71 3.499687 -0.21 
-1.570391 2.61 0.21 
-4.630312 5.28 0.96 
4.630312 4.59 -0.06 
-0.3 -0.69 0.8905388 
4.630312 4.71 -1.26 
-1.35 6.499687 0.54 
0.78 0.42 0.7931787 
1.68 3.499687 1.05 
2.82 3.499687 -1.02 
1.38 -2.43 0.4714299 
-4.630312 5.82 0.63 
2.55 5.13 1.53 
-1.56 4.02 -1.53 
0.45 3.36 0.8680819 
-3.45 3.499687 1.35 
1.08 -0.87 -0.6728348 
1.32 6.27 -1.53 
4.630312 4.59 -0.48 
-0.51 -0.39 -0.8586303 
0.6 6.12 -1.53 
1.62 6.499687 0.15 
3.9 5.1 -1.53 
4.630312 4.38 0.18 
-0.36 5.7 1.53 
-2.85 6.499687 -0.06 
0.81 -3.499687 0.54 
-0.24 -2.88 0.8953125 
-1.527403 0.87 -0.3 
0.66 5.88 1.53 
-0.03 6.15 1.53 
-1.56 6.499687 -1.35 
-2.22 3.499687 -1.02 
-2.34 6.499687 0.3 
0.45 3.9 -1.53 
0.87 3.39 -0.7617188 
0.42 6 1.53 
-2.82 6.48 1.53 
-0.96 1.38 -0.7264857 
0.15 6.499687 0.66 
-1.584772 -2.94 -0.18 
-1.103437 -0.36 0.66 
3.96 3.499687 -1.53 
3.75 4.11 1.53 
-0.24 3.36 0.8953256 
-0.93 0.39 -0.7384732 
2.85 6.499687 1.02 
-4.630312 5.76 -0.24 
0.57 -2.25 -0.8483779 
-4.630312 4.62 -0.21 
-4.41 3.499687 -0.18 
1.430517 -0.09 -0.42 
1.62 6.499687 0.93 
-0.48 -0.12 -0.8635951 
1.049886 -3.45 -0.69 
-3.03 6.09 -1.53 
