# .PCD v0.7 - Point Cloud Data file format
VERSION 0.7
FIELDS x y z rgb
SIZE 4 4 4 4
TYPE F F F F
COUNT 1 1 1 1
WIDTH 1022
HEIGHT 1
VIEWPOINT 0 0 0 1 0 0 0
POINTS 1022
DATA ascii
0.024329914 0.15576737 1.003 8.6568113e-39
-0.033780336 0.15722582 1 4.2303127e-39
-0.031845752 0.15722582 1 4.4146997e-39
-0.030000901 0.1576975 1.003 4.7816788e-39
-0.028060514 0.1576975 1.003 4.6891216e-39
-0.026120128 0.1576975 1.003 4.4128949e-39
-0.024179742 0.1576975 1.003 4.3210566e-39
-0.022305874 0.15816918 1.006 4.2292169e-39
-0.02052159 0.15942699 1.0140001 4.1373772e-39
-0.018559923 0.15942699 1.0140001 3.9537048e-39
-0.016647365 0.15989865 1.0170001 3.9540635e-39
-0.014723198 0.16037033 1.0200001 3.9540663e-39
-0.012749924 0.16037033 1.0200001 3.9537118e-39
-0.010808346 0.16084202 1.023 4.0451913e-39
-0.0088551603 0.1613137 1.026 4.1370282e-39
-0.0068702782 0.1613137 1.026 4.2292225e-39
-0.0049044429 0.1619426 1.0300001 4.321774e-39
-0.0029118231 0.1619426 1.0300001 4.3214153e-39
-0.00091920298 0.1619426 1.0300001 4.5054436e-39
0.001073417 0.1619426 1.0300001 4.7813088e-39
0.0030660371 0.1619426 1.0300001 4.6898321e-39
0.0050586569 0.1619426 1.0300001 4.5065198e-39
0.0070238933 0.1613137 1.026 4.4146815e-39
0.0090087745 0.1613137 1.026 4.2306518e-39
0.010929367 0.16037033 1.0200001 4.2313721e-39
0.012864691 0.15989865 1.0170001 4.4157661e-39
0.014832162 0.15989865 1.0170001 4.783834e-39
0.016750077 0.15942699 1.0140001 5.3362861e-39
0.018601023 0.15848364 1.008 5.6132275e-39
0.020510307 0.15816918 1.006 5.7054329e-39
0.022389527 0.1576975 1.003 6.4422987e-39
0.024329914 0.1576975 1.003 8.1965366e-39
0.0262703 0.1576975 1.003 1.0506097e-38
-0.033780336 0.15915018 1 4.1366737e-39
-0.031845752 0.15915018 1 4.2306644e-39
-0.030000901 0.15962765 1.003 4.5058094e-39
-0.028060514 0.15962765 1.003 4.3214167e-39
-0.026120128 0.15962765 1.003 4.0451899e-39
-0.024179742 0.15962765 1.003 3.9533516e-39
-0.022416739 0.16090085 1.011 3.9533502e-39
-0.020582305 0.16185574 1.0170001 3.9533474e-39
-0.018614834 0.16185574 1.0170001 3.7696736e-39
-0.016696472 0.16233319 1.0200001 3.7696736e-39
-0.014766501 0.16281064 1.023 3.7693177e-39
-0.012787423 0.16281064 1.023 3.8611574e-39
-0.010840042 0.1632881 1.026 3.8611602e-39
-0.0088896826 0.16392469 1.0300001 3.9533544e-39
-0.006897063 0.16392469 1.0300001 4.0455487e-39
-0.004918728 0.16440216 1.033 4.1381016e-39
-0.002920304 0.16440216 1.033 4.1381002e-39
-0.0009218803 0.16440216 1.033 4.2299357e-39
0.0010796699 0.16487959 1.036 4.2302945e-39
0.0030838975 0.16487959 1.036 4.2306532e-39
0.0050881249 0.16487959 1.036 4.2302931e-39
0.0070718145 0.16440216 1.033 4.1380988e-39
0.0090087745 0.1632881 1.026 4.1380988e-39
0.010993657 0.1632881 1.026 4.2302945e-39
0.012902641 0.16233319 1.0200001 4.3224929e-39
0.014832162 0.16185574 1.0170001 4.5072471e-39
0.016799632 0.16185574 1.0170001 5.0597006e-39
0.018656382 0.16090085 1.011 5.3370049e-39
0.020551082 0.1604234 1.008 5.5217619e-39
0.022456497 0.16010509 1.006 6.1667824e-39
0.024329914 0.15962765 1.003 7.8259506e-39
0.0262703 0.15962765 1.003 1.004153e-38
-0.033678994 0.16059132 0.99700004 4.0451899e-39
-0.031845752 0.16107455 1 4.137387e-39
-0.030000901 0.16155778 1.003 4.4121746e-39
-0.028060514 0.16155778 1.003 4.2281407e-39
-0.026120128 0.16155778 1.003 3.9526328e-39
-0.024252065 0.16204101 1.006 3.8611546e-39
-0.022416739 0.16284637 1.011 3.7696764e-39
-0.020582305 0.16381282 1.0170001 3.7693163e-39
-0.018614834 0.16381282 1.0170001 3.5856439e-39
-0.016794687 0.16526249 1.026 3.6771193e-39
-0.014809806 0.16526249 1.026 3.6767633e-39
-0.012824924 0.16526249 1.026 3.6771263e-39
-0.010882302 0.16590679 1.0300001 3.7693219e-39
-0.0089155752 0.16639002 1.033 3.8611574e-39
-0.0069171516 0.16639002 1.033 3.9533516e-39
-0.0049330126 0.16687323 1.036 3.9537104e-39
-0.002928785 0.16687323 1.036 3.8618749e-39
-0.00092455756 0.16687323 1.036 3.862235e-39
0.0010796699 0.16687323 1.036 3.9540705e-39
0.0030928277 0.16735645 1.039 3.9540677e-39
0.0051028593 0.16735645 1.039 3.953709e-39
0.0070923525 0.16687323 1.036 3.9533516e-39
0.0090965796 0.16687323 1.036 3.953353e-39
0.011036518 0.16590679 1.0300001 4.0451885e-39
0.012978538 0.16526249 1.026 4.0451913e-39
0.014875915 0.16429605 1.0200001 4.3214209e-39
0.016799632 0.16381282 1.0170001 4.7834752e-39
0.018711744 0.16332959 1.0140001 5.1526193e-39
0.020612245 0.16284637 1.011 5.6128814e-39
0.022456497 0.16204101 1.006 6.2568159e-39
0.024402685 0.16204101 1.006 7.2702601e-39
0.0262703 0.16155778 1.003 9.1159902e-39
-0.033780336 0.16299891 1 3.9519153e-39
-0.031941287 0.16348791 1.003 4.0448326e-39
-0.030000901 0.16348791 1.003 4.2281421e-39
-0.028060514 0.16348791 1.003 4.1355863e-39
-0.026198255 0.16397691 1.006 3.8604371e-39
-0.024300279 0.16430292 1.008 3.6771235e-39
-0.022549776 0.16576989 1.0170001 3.5852866e-39
-0.020582305 0.16576989 1.0170001 3.5852852e-39
-0.018724658 0.16674788 1.023 3.4934455e-39
-0.01690927 0.16837789 1.033 3.5849194e-39
-0.014867542 0.16788888 1.0300001 3.5849222e-39
-0.012912423 0.16837789 1.033 3.5849292e-39
-0.010945695 0.16886687 1.036 3.5852908e-39
-0.0089414679 0.16886687 1.036 3.6771277e-39
-0.0069372403 0.16886687 1.036 3.7689632e-39
-0.0049330126 0.16886687 1.036 3.7693219e-39
-0.002928785 0.16886687 1.036 3.6778451e-39
-0.00092455756 0.16886687 1.036 3.5867271e-39
0.0010827964 0.16935587 1.039 3.4948902e-39
0.003101758 0.16984487 1.0420001 3.5860068e-39
0.0051028593 0.16935587 1.039 3.6774836e-39
0.0071128905 0.16935587 1.039 3.7693205e-39
0.0091229221 0.16935587 1.039 3.7693205e-39
0.011100807 0.16886687 1.036 3.7693219e-39
0.013029138 0.16788888 1.0300001 3.7693247e-39
0.014919668 0.16674788 1.023 4.0455543e-39
0.01684919 0.16625889 1.0200001 4.506531e-39
0.018711744 0.16528089 1.0140001 5.0600607e-39
0.020673409 0.16528089 1.0140001 5.7961894e-39
0.022456497 0.16397691 1.006 6.3475738e-39
0.0244512 0.16430292 1.008 6.6259781e-39
0.0262703 0.16348791 1.003 8.1057998e-39
0.028295066 0.16397691 1.006 1.2164173e-38
0.030241257 0.16397691 1.006 1.5120844e-38
-0.033780336 0.16492328 1 3.5834943e-39
-0.031941287 0.16541804 1.003 3.6767704e-39
-0.030000901 0.16541804 1.003 4.0444683e-39
-0.028284328 0.16673744 1.011 3.9522726e-39
-0.02640659 0.1672322 1.0140001 3.7686002e-39
-0.024444925 0.1672322 1.0140001 3.5849278e-39
-0.022749333 0.16921128 1.026 3.4927322e-39
-0.020966832 0.17086051 1.036 3.4930895e-39
-0.018962605 0.17086051 1.036 3.4012484e-39
-0.017007485 0.17135528 1.039 3.4012414e-39
-0.014997453 0.17135528 1.039 3.3094116e-39
-0.012987422 0.17135528 1.039 3.4016128e-39
-0.010977391 0.17135528 1.039 3.4934539e-39
-0.0089932531 0.17185006 1.0420001 3.5849321e-39
-0.006977417 0.17185006 1.0420001 3.6764102e-39
-0.0049615824 0.17185006 1.0420001 3.6767704e-39
-0.0029457472 0.17185006 1.0420001 3.5860111e-39
-0.00092991214 0.17185006 1.0420001 3.4945301e-39
0.0010859228 0.17185006 1.0420001 3.4026932e-39
0.003101758 0.17185006 1.0420001 3.4023345e-39
0.0051175929 0.17185006 1.0420001 3.4938112e-39
0.007133428 0.17185006 1.0420001 3.585288e-39
0.0091492627 0.17185006 1.0420001 3.4934525e-39
0.011165097 0.17185006 1.0420001 3.4934553e-39
0.013105035 0.17086051 1.036 3.4938168e-39
0.015021757 0.16987097 1.0300001 3.7700464e-39
0.016948301 0.16921128 1.026 4.2303029e-39
0.018822465 0.16822174 1.0200001 4.6909181e-39
0.020734575 0.16772696 1.0170001 5.428123e-39
0.022702044 0.16772696 1.0170001 5.9805919e-39
0.024596743 0.1672322 1.0140001 6.2579229e-39
0.026401259 0.16624267 1.008 7.8288597e-39
0.028210687 0.16541804 1.003 1.1798265e-38
0.030151073 0.16541804 1.003 1.4936814e-38
-0.028368257 0.16918351 1.0140001 3.7685988e-39
-0.02640659 0.16918351 1.0140001 3.5849264e-39
-0.024830643 0.17185308 1.0300001 3.493091e-39
-0.022838023 0.17185308 1.0300001 3.4008939e-39
-0.021027548 0.1733547 1.039 3.4008925e-39
-0.019017518 0.1733547 1.039 3.3090528e-39
-0.017056592 0.17385523 1.0420001 3.2172131e-39
-0.015040758 0.17385523 1.0420001 2.9420696e-39
-0.013024922 0.17385523 1.0420001 3.1264636e-39
-0.011009088 0.17385523 1.0420001 3.4019743e-39
-0.0089932531 0.17385523 1.0420001 3.4930952e-39
-0.006977417 0.17385523 1.0420001 3.4927364e-39
-0.0049615824 0.17385523 1.0420001 3.5845733e-39
-0.0029457472 0.17385523 1.0420001 3.5852894e-39
-0.00092991214 0.17385523 1.0420001 3.4941685e-39
0.0010890493 0.17435578 1.0450001 3.2186607e-39
0.0031106879 0.17435578 1.0450001 3.2183019e-39
0.0051323264 0.17435578 1.0450001 3.3097787e-39
0.007133428 0.17385523 1.0420001 3.2179418e-39
0.0091756042 0.17435578 1.0450001 3.126465e-39
0.011197243 0.17435578 1.0450001 3.1264664e-39
0.013142984 0.1733547 1.039 3.2183061e-39
0.01506551 0.17235363 1.033 3.4938168e-39
0.017014377 0.17185308 1.0300001 3.8618819e-39
0.018933183 0.17118569 1.026 4.3224985e-39
0.020795738 0.1701846 1.0200001 5.0589845e-39
0.022769013 0.1701846 1.0200001 5.6114465e-39
0.024669515 0.16968405 1.0170001 5.9820465e-39
0.026479835 0.16868298 1.011 7.6473327e-39
0.028435698 0.16868298 1.011 1.1613872e-38
-0.035107762 0.16590288 0.98300004 5.2393989e-39
-0.033206068 0.16590288 0.98300004 2.940643e-39
-0.031304374 0.16590288 0.98300004 3.0332016e-39
-0.030419657 0.17164113 1.0170001 3.5845705e-39
-0.028452188 0.17164113 1.0170001 3.5845663e-39
-0.026562842 0.17214744 1.0200001 3.4927294e-39
-0.024734214 0.17316008 1.026 3.4008939e-39
-0.022904541 0.17434148 1.033 3.3083382e-39
-0.021027548 0.17535411 1.039 3.3086941e-39
-0.019072428 0.17586042 1.0420001 3.2172173e-39
-0.017056592 0.17586042 1.0420001 3.1253818e-39
-0.015040758 0.17586042 1.0420001 2.942071e-39
-0.013062422 0.17636675 1.0450001 3.0346267e-39
-0.011040783 0.17636675 1.0450001 3.310136e-39
-0.0090191448 0.17636675 1.0450001 3.4016156e-39
-0.0069975061 0.17636675 1.0450001 3.4008981e-39
-0.004975867 0.17636675 1.0450001 3.4005394e-39
-0.0029542283 0.17636675 1.0450001 3.4923749e-39
-0.00093258946 0.17636675 1.0450001 3.4012541e-39
0.0010921757 0.17687306 1.0480001 3.2175817e-39
0.0031196182 0.17687306 1.0480001 3.1257462e-39
0.0051470608 0.17687306 1.0480001 3.0335505e-39
0.0071539655 0.17636675 1.0450001 2.9420724e-39
0.0092019457 0.17687306 1.0480001 2.9427898e-39
0.011197243 0.17636675 1.0450001 2.9427898e-39
0.013142984 0.17535411 1.039 3.0346281e-39
0.015109262 0.17484778 1.036 3.2179474e-39
0.017063934 0.17434148 1.033 3.5856551e-39
0.019006997 0.17383517 1.0300001 3.9540789e-39
0.020918066 0.17316008 1.026 4.4157745e-39
0.022835979 0.17265376 1.023 5.0611411e-39
0.024742287 0.17214744 1.0200001 6.1660622e-39
0.02655841 0.1711348 1.0140001 8.1036305e-39
0.028520077 0.1711348 1.0140001 1.1703908e-38
0.030481743 0.1711348 1.0140001 1.4474766e-38
-0.035107762 0.16779453 0.98300004 5.5131089e-39
-0.033206068 0.16779453 0.98300004 2.7566077e-39
-0.031304374 0.16779453 0.98300004 2.8495264e-39
-0.030419657 0.1735982 1.0170001 3.4008967e-39
-0.028452188 0.1735982 1.0170001 3.4927294e-39
-0.026484717 0.1735982 1.0170001 3.4008925e-39
-0.024830643 0.17581727 1.0300001 3.309057e-39
-0.022904541 0.17632936 1.033 3.21686e-39
-0.021088263 0.17786561 1.0420001 3.2164999e-39
-0.019127339 0.1783777 1.0450001 3.1253804e-39
-0.0171057 0.1783777 1.0450001 3.0339023e-39
-0.015084061 0.1783777 1.0450001 2.85059e-39
-0.013099922 0.1788898 1.0480001 2.9424269e-39
-0.011072479 0.1788898 1.0480001 3.2179362e-39
-0.0090450365 0.1788898 1.0480001 3.3097759e-39
-0.0070175943 0.1788898 1.0480001 3.3094172e-39
-0.0049901516 0.1788898 1.0480001 3.3086997e-39
-0.0029627092 0.1788898 1.0480001 3.3086983e-39
-0.00093526673 0.1788898 1.0480001 3.309057e-39
0.0010963443 0.17957258 1.052 3.3094144e-39
0.0031315251 0.17957258 1.052 3.125742e-39
0.0051667062 0.17957258 1.052 2.7580426e-39
0.0071745031 0.1788898 1.0480001 2.6665687e-39
0.0092370678 0.17957258 1.052 2.7587629e-39
0.011229388 0.1788898 1.0480001 2.7587615e-39
0.013180932 0.17786561 1.0420001 2.7587615e-39
0.015109262 0.17684142 1.036 2.9424381e-39
0.017113492 0.17684142 1.036 3.3101444e-39
0.019062359 0.17632936 1.033 3.5867355e-39
0.020999618 0.17581727 1.0300001 3.7718485e-39
0.022902947 0.17513448 1.026 4.6023182e-39
0.024742287 0.17411029 1.0200001 6.4437168e-39
0.026715562 0.17411029 1.0200001 8.6549995e-39
0.028688835 0.17411029 1.0200001 1.1701396e-38
0.03066211 0.17411029 1.0200001 1.4197824e-38
-0.037084758 0.17003143 0.98500007 8.7446251e-39
-0.035107762 0.16968618 0.98300004 5.7921971e-39
-0.033206068 0.16968618 0.98300004 2.5732898e-39
-0.028452188 0.17555527 1.0170001 3.4008911e-39
-0.026484717 0.17555527 1.0170001 3.3086983e-39
-0.025047611 0.17935294 1.039 3.2172215e-39
-0.023104098 0.1798708 1.0420001 3.0335477e-39
-0.021148978 0.18038866 1.0450001 3.0331862e-39
-0.01918225 0.18090652 1.0480001 3.0335421e-39
-0.017154807 0.18090652 1.0480001 2.8502271e-39
-0.015127365 0.18090652 1.0480001 2.5747206e-39
-0.013099922 0.18090652 1.0480001 2.6665561e-39
-0.011072479 0.18090652 1.0480001 2.9424241e-39
-0.0090450365 0.18090652 1.0480001 3.0342638e-39
-0.0070443791 0.18159701 1.052 3.1257406e-39
-0.0050091981 0.18159701 1.052 3.2172159e-39
-0.0029627092 0.18090652 1.0480001 3.2172159e-39
-0.00093883649 0.18159701 1.052 3.2175761e-39
0.0010994708 0.18211487 1.0550001 3.2175761e-39
0.0031404553 0.18211487 1.0550001 3.0339037e-39
0.0051667062 0.18159701 1.052 2.6662057e-39
0.0072224247 0.18211487 1.0550001 2.5743773e-39
0.0092634093 0.18211487 1.0550001 2.5747374e-39
0.011272249 0.18159701 1.052 2.5747332e-39
0.013180932 0.1798708 1.0420001 2.5747318e-39
0.015153015 0.17935294 1.039 2.8505984e-39
0.017113492 0.17883506 1.036 3.2190222e-39
0.019062359 0.17831722 1.033 3.4030645e-39
0.021060782 0.17831722 1.033 3.3101598e-39
0.022992238 0.17779936 1.0300001 4.2313875e-39
0.024887828 0.17710887 1.026 6.6241564e-39
0.026872709 0.17710887 1.026 9.2035013e-39
0.028688835 0.17607313 1.0200001 1.1794307e-38
0.03066211 0.17607313 1.0200001 1.4108143e-38
-0.037084758 0.17192692 0.98500007 9.2956451e-39
-0.035107762 0.17157783 0.98300004 6.0648338e-39
-0.033206068 0.17157783 0.98300004 2.2974232e-39
-0.025047611 0.18135235 1.039 3.0339107e-39
-0.023170616 0.18239962 1.0450001 2.7584e-39
-0.021209693 0.18292326 1.0480001 2.7576769e-39
-0.01918225 0.18292326 1.0480001 2.8498655e-39
-0.017154807 0.18292326 1.0480001 2.6665463e-39
-0.015127365 0.18292326 1.0480001 2.2988469e-39
-0.013149922 0.18362144 1.052 2.2984924e-39
-0.011114741 0.18362144 1.052 2.4825249e-39
-0.0090795597 0.18362144 1.052 2.7591104e-39
-0.0070443791 0.18362144 1.052 3.0342582e-39
-0.0050091981 0.18362144 1.052 3.1257322e-39
-0.0029740173 0.18362144 1.052 3.1257336e-39
-0.00094151375 0.18414508 1.0550001 3.1257378e-39
0.0010994708 0.18414508 1.0550001 3.1257392e-39
0.0031404553 0.18414508 1.0550001 2.9420668e-39
0.0051814402 0.18414508 1.0550001 2.5747248e-39
0.0072429623 0.18466872 1.0580001 2.3906965e-39
0.0092634093 0.18414508 1.0550001 2.3910552e-39
0.011304394 0.18414508 1.0550001 2.3910552e-39
0.013256831 0.18292326 1.0480001 2.3910566e-39
0.015153015 0.18135235 1.039 2.6669246e-39
0.017113492 0.18082871 1.036 3.2183005e-39
0.019062359 0.18030508 1.033 3.3101444e-39
0.021060782 0.18030508 1.033 2.8509768e-39
0.023059206 0.18030508 1.033 3.7736505e-39
0.025057629 0.18030508 1.033 6.9032601e-39
0.027056053 0.18030508 1.033 9.7573827e-39
-0.037084758 0.17382242 0.98500007 1.0492382e-38
-0.035179194 0.17382242 0.98500007 6.5293936e-39
-0.033206068 0.17346948 0.98300004 2.1137536e-39
-0.031304374 0.17346948 0.98300004 2.2977904e-39
-0.027057642 0.18335176 1.039 3.0339065e-39
-0.025047611 0.18335176 1.039 2.8506012e-39
-0.023104098 0.18388116 1.0420001 2.6669232e-39
-0.021209693 0.18494 1.0480001 2.5747206e-39
-0.019255463 0.18564586 1.052 2.6665463e-39
-0.017220283 0.18564586 1.052 2.5746996e-39
-0.015185102 0.18564586 1.052 2.4828683e-39
-0.013187421 0.18617529 1.0550001 2.5747122e-39
-0.011146436 0.18617529 1.0550001 2.8505816e-39
-0.0091054514 0.18617529 1.0550001 3.0346127e-39
-0.0070845559 0.1867047 1.0580001 3.3101164e-39
-0.0050377678 0.1867047 1.0580001 3.3101122e-39
-0.0029909795 0.1867047 1.0580001 3.2186382e-39
-0.00094419107 0.1867047 1.0580001 3.3104807e-39
0.0011057238 0.18723409 1.0610001 3.4019603e-39
0.0031583158 0.18723409 1.0610001 3.2182893e-39
0.0051961741 0.1867047 1.0580001 3.0342554e-39
0.0072429623 0.1867047 1.0580001 2.8505774e-39
0.0092634093 0.18617529 1.0550001 2.7587419e-39
0.011304394 0.18617529 1.0550001 2.6665519e-39
0.013307429 0.18564586 1.052 2.574722e-39
0.015284273 0.18494 1.0480001 2.8502327e-39
0.017262159 0.18441057 1.0450001 3.3097717e-39
0.019173076 0.18335176 1.039 3.309057e-39
0.021121945 0.18282235 1.036 2.7569819e-39
0.023059206 0.18229295 1.033 3.9566125e-39
0.025057629 0.18229295 1.033 7.5504245e-39
0.027056053 0.18229295 1.033 1.0404536e-38
-0.037084758 0.17571792 0.98500007 1.1780598e-38
-0.035179194 0.17571792 0.98500007 7.0847352e-39
-0.03327363 0.17571792 0.98500007 1.841131e-39
-0.031304374 0.17536113 0.98300004 2.0215692e-39
-0.027135767 0.18588635 1.0420001 2.6661987e-39
-0.025119932 0.18588635 1.0420001 2.6669176e-39
-0.023170616 0.18642154 1.0450001 2.5750807e-39
-0.021209693 0.18695672 1.0480001 2.4828837e-39
-0.019255463 0.18767031 1.052 2.3910412e-39
-0.017269392 0.18820548 1.0550001 2.4828683e-39
-0.015228406 0.18820548 1.0550001 2.6672609e-39
-0.013224921 0.18874067 1.0580001 3.0353288e-39
-0.011178133 0.18874067 1.0580001 3.3104807e-39
-0.0091572367 0.18927583 1.0610001 3.4937944e-39
-0.007104645 0.18927583 1.0610001 3.4941503e-39
-0.0050520529 0.18927583 1.0610001 3.4945049e-39
-0.0029909795 0.18874067 1.0580001 3.4945077e-39
-0.00094686833 0.18927583 1.0610001 3.5867089e-39
0.0011057238 0.18927583 1.0610001 3.6785458e-39
0.0031583158 0.18927583 1.0610001 3.6781871e-39
0.0052109077 0.18927583 1.0610001 3.5859886e-39
0.0072634998 0.18927583 1.0610001 3.402312e-39
0.0092897499 0.18874067 1.0580001 3.1268041e-39
0.011336538 0.18874067 1.0580001 2.9424199e-39
0.013383327 0.18874067 1.0580001 2.9424241e-39
0.015386363 0.18820548 1.0550001 3.0342638e-39
0.017311716 0.18695672 1.0480001 3.401247e-39
0.019173076 0.18535118 1.039 3.3998079e-39
0.021121945 0.18481599 1.036 2.8509641e-39
0.023126174 0.18481599 1.036 4.2400223e-39
0.025057629 0.18428081 1.033 8.3834152e-39
-0.035179194 0.17761341 0.98500007 8.4687543e-39
-0.03327363 0.17761341 0.98500007 4.9639148e-39
-0.027135767 0.18789154 1.0420001 2.298491e-39
-0.025119932 0.18789154 1.0420001 2.3910356e-39
-0.023237133 0.18897346 1.0480001 2.5747108e-39
-0.021290643 0.18969473 1.052 2.5750751e-39
-0.019310376 0.19023569 1.0550001 2.6669106e-39
-0.017269392 0.19023569 1.0550001 2.7587433e-39
-0.01527171 0.19077665 1.0580001 3.0353288e-39
-0.013224921 0.19077665 1.0580001 3.2193641e-39
-0.011178133 0.19077665 1.0580001 3.4945147e-39
-0.0091572367 0.19131759 1.0610001 3.5859942e-39
-0.0071247332 0.19185854 1.064 3.6785458e-39
-0.0050520529 0.19131759 1.0610001 3.7707372e-39
-0.0029994603 0.19131759 1.0610001 3.6792619e-39
-0.00094686833 0.19131759 1.0610001 3.7714603e-39
0.0011088502 0.19185854 1.064 3.8640147e-39
0.0031583158 0.19131759 1.0610001 3.9554914e-39
0.0052109077 0.19131759 1.0610001 3.9547726e-39
0.0072634998 0.19131759 1.0610001 3.7710974e-39
0.0092897499 0.19077665 1.0580001 3.5870662e-39
0.011336538 0.19077665 1.0580001 3.494872e-39
0.013383327 0.19077665 1.0580001 3.4026806e-39
0.015430115 0.19077665 1.0580001 3.3101318e-39
0.017427348 0.19023569 1.0550001 3.124663e-39
0.019283798 0.1884325 1.0450001 3.5852642e-39
0.021183109 0.18735059 1.039 4.8767204e-39
0.02319314 0.18735059 1.039 6.6313437e-39
-0.035179194 0.17950891 0.98500007 1.0224074e-38
-0.03327363 0.17950891 0.98500007 9.2913221e-39
-0.027135767 0.18989673 1.0420001 1.9307945e-39
-0.025192255 0.19044346 1.0450001 2.2992015e-39
-0.023237133 0.19099018 1.0480001 2.483234e-39
-0.021290643 0.19171916 1.052 2.7587461e-39
-0.019310376 0.19226588 1.0550001 2.9424199e-39
-0.017318498 0.19281262 1.0580001 3.126451e-39
-0.01527171 0.19281262 1.0580001 3.2190082e-39
-0.013224921 0.19281262 1.0580001 3.4034008e-39
-0.011209829 0.19335933 1.0610001 3.5867159e-39
-0.0091572367 0.19335933 1.0610001 3.6785528e-39
-0.007104645 0.19335933 1.0610001 3.8629413e-39
-0.0050520529 0.19335933 1.0610001 3.9551341e-39
-0.0029994603 0.19335933 1.0610001 3.8636587e-39
-0.00094686833 0.19335933 1.0610001 3.9565732e-39
0.0011088502 0.19390607 1.064 4.1402456e-39
0.0031583158 0.19335933 1.0610001 4.2317238e-39
0.0052109077 0.19335933 1.0610001 4.2313622e-39
0.0072634998 0.19335933 1.0610001 4.1391666e-39
0.0092897499 0.19281262 1.0580001 4.1391652e-39
0.011336538 0.19281262 1.0580001 4.0466123e-39
0.013383327 0.19281262 1.0580001 4.0462521e-39
0.015430115 0.19281262 1.0580001 3.5852796e-39
0.017427348 0.19226588 1.0550001 2.6662128e-39
0.019339159 0.19099018 1.0480001 3.7747113e-39
0.0213666 0.19099018 1.0480001 7.4567646e-39
0.02319314 0.18934999 1.039 9.5765508e-39
-0.035179194 0.18140441 0.98500007 1.0501422e-38
-0.03327363 0.18140441 0.98500007 1.095873e-38
-0.025361005 0.19374359 1.052 1.9318651e-39
-0.023325825 0.19374359 1.052 2.575431e-39
-0.02135136 0.19429609 1.0550001 2.8509403e-39
-0.019310376 0.19429609 1.0550001 3.0342568e-39
-0.017318498 0.1948486 1.0580001 3.2182921e-39
-0.01527171 0.1948486 1.0580001 3.4030449e-39
-0.013224921 0.1948486 1.0580001 3.5870774e-39
-0.011209829 0.19540109 1.0610001 3.6789157e-39
-0.0091572367 0.19540109 1.0610001 3.8633042e-39
-0.0029994603 0.19540109 1.0610001 4.1402512e-39
-0.00094686833 0.19540109 1.0610001 4.2324468e-39
0.0011057238 0.19540109 1.0610001 4.4161178e-39
0.0031583158 0.19540109 1.0610001 4.4157605e-39
0.0052109077 0.19540109 1.0610001 4.4157605e-39
0.0072634998 0.19540109 1.0610001 4.4157591e-39
0.0092897499 0.1948486 1.0580001 4.5072345e-39
0.011336538 0.1948486 1.0580001 4.322846e-39
0.013383327 0.1948486 1.0580001 4.0462591e-39
0.015430115 0.1948486 1.0580001 4.1380876e-39
0.017427348 0.19429609 1.0550001 4.6887601e-39
0.019468332 0.19429609 1.0550001 6.348308e-39
0.021509316 0.19429609 1.0550001 9.2099445e-39
-0.025364911 0.1812529 0.97400004 1.195756e-39
-0.023480628 0.1812529 0.97400004 1.5634511e-39
-0.023392346 0.1963263 1.0550001 2.7583902e-39
-0.02135136 0.1963263 1.0550001 3.0346169e-39
-0.019365286 0.19688457 1.0580001 3.1268168e-39
-0.017318498 0.19688457 1.0580001 3.3101332e-39
-0.01527171 0.19688457 1.0580001 3.6781969e-39
-0.013224921 0.19688457 1.0580001 3.7703939e-39
-0.011178133 0.19688457 1.0580001 3.8629497e-39
-0.009131345 0.19688457 1.0580001 3.9565802e-39
-0.007104645 0.19744283 1.0610001 4.0487759e-39
-0.0050520529 0.19744283 1.0610001 4.2320895e-39
-0.0029994603 0.19744283 1.0610001 4.4157619e-39
-0.00094686833 0.19744283 1.0610001 4.5075988e-39
0.0011057238 0.19744283 1.0610001 4.5079589e-39
0.0031583158 0.19744283 1.0610001 4.5997958e-39
0.0052109077 0.19744283 1.0610001 4.5079589e-39
0.0072429623 0.19688457 1.0580001 4.5994343e-39
0.0092897499 0.19688457 1.0580001 4.7823864e-39
0.011336538 0.19688457 1.0580001 4.5054436e-39
0.013383327 0.19688457 1.0580001 3.8636769e-39
0.015430115 0.19688457 1.0580001 4.7877856e-39
0.017427348 0.1963263 1.0550001 7.455345e-39
0.019468332 0.1963263 1.0550001 9.5747795e-39
0.021509316 0.1963263 1.0550001 1.0685432e-38
-0.025443036 0.18369128 0.97700006 4.4114235e-39
-0.023552949 0.18369128 0.97700006 3.5852712e-39
-0.023392346 0.19835649 1.0550001 3.2168586e-39
-0.02135136 0.19835649 1.0550001 3.0339093e-39
-0.019365286 0.19892055 1.0580001 2.851676e-39
-0.017318498 0.19892055 1.0580001 3.0349897e-39
-0.01527171 0.19892055 1.0580001 3.3115752e-39
-0.013224921 0.19892055 1.0580001 3.6789199e-39
-0.011178133 0.19892055 1.0580001 4.0473409e-39
-0.009131345 0.19892055 1.0580001 4.2317322e-39
-0.007104645 0.19948459 1.0610001 4.3235705e-39
-0.0050520529 0.19948459 1.0610001 4.415406e-39
-0.0029909795 0.19892055 1.0580001 4.5990784e-39
-0.00094419107 0.19892055 1.0580001 4.5990798e-39
0.0011025972 0.19892055 1.0580001 4.4161277e-39
0.0031493856 0.19892055 1.0580001 4.4161277e-39
0.0051961741 0.19892055 1.0580001 4.5083219e-39
0.0072429623 0.19892055 1.0580001 4.6912726e-39
0.0092897499 0.19892055 1.0580001 4.9649826e-39
0.011304394 0.19835649 1.0550001 5.3341155e-39
0.013383327 0.19892055 1.0580001 5.8890941e-39
0.015386363 0.19835649 1.0550001 7.0891003e-39
0.017427348 0.19835649 1.0550001 8.9348093e-39
0.019468332 0.19835649 1.0550001 1.013371e-38
0.021509316 0.19835649 1.0550001 1.0408855e-38
-0.025521165 0.18614119 0.98000002 9.1087147e-39
-0.023625273 0.18614119 0.98000002 6.6255704e-39
-0.023392346 0.2003867 1.0550001 3.6821611e-39
-0.02135136 0.2003867 1.0550001 2.8498894e-39
-0.019365286 0.20095652 1.0580001 2.5743801e-39
-0.017318498 0.20095652 1.0580001 2.6658568e-39
-0.01527171 0.20095652 1.0580001 2.8506054e-39
-0.013224921 0.20095652 1.0580001 3.4019771e-39
-0.011178133 0.20095652 1.0580001 4.2288595e-39
-0.009131345 0.20095652 1.0580001 4.596563e-39
-0.0070845559 0.20095652 1.0580001 4.5969246e-39
-0.0050377678 0.20095652 1.0580001 4.6891202e-39
-0.0029909795 0.20095652 1.0580001 4.8731513e-39
-0.00094419107 0.20095652 1.0580001 4.6887643e-39
0.0011025972 0.20095652 1.0580001 4.2303071e-39
0.0031493856 0.20095652 1.0580001 4.1384758e-39
0.0051961741 0.20095652 1.0580001 4.3225139e-39
0.0072429623 0.20095652 1.0580001 4.5976715e-39
0.0092897499 0.20095652 1.0580001 5.0604419e-39
0.011336538 0.20095652 1.0580001 6.4476601e-39
0.013383327 0.20095652 1.0580001 8.748225e-39
0.015430115 0.20095652 1.0580001 9.9442655e-39
0.017427348 0.2003867 1.0550001 9.7641959e-39
0.019468332 0.2003867 1.0550001 9.5794515e-39
0.021509316 0.2003867 1.0550001 9.3021457e-39
0.023771999 0.18614119 0.98000002 8.0128348e-39
0.025667891 0.18614119 0.98000002 8.1035955e-39
0.027563781 0.18614119 0.98000002 1.0042914e-38
0.029459672 0.18614119 0.98000002 1.2174534e-38
-0.025312826 0.18649216 0.97200006 1.0224088e-38
-0.023432411 0.18649216 0.97200006 8.5652981e-39
-0.023392346 0.2024169 1.0550001 6.5391425e-39
-0.02135136 0.2024169 1.0550001 5.7054091e-39
-0.019310376 0.2024169 1.0550001 5.2383283e-39
-0.017269392 0.2024169 1.0550001 5.0557335e-39
-0.015228406 0.2024169 1.0550001 4.8706262e-39
-0.013187421 0.2024169 1.0550001 5.0557321e-39
-0.011146436 0.2024169 1.0550001 5.2376123e-39
-0.0091054514 0.2024169 1.0550001 5.3301694e-39
-0.0070644673 0.2024169 1.0550001 5.2376193e-39
-0.0050234827 0.2024169 1.0550001 5.422728e-39
-0.0029824984 0.2024169 1.0550001 5.6060416e-39
-0.00094151375 0.2024169 1.0550001 5.7915077e-39
0.0010994708 0.2024169 1.0550001 5.8833502e-39
0.0031404553 0.2024169 1.0550001 6.0681072e-39
0.0051814402 0.2024169 1.0550001 6.3436319e-39
0.0072224247 0.2024169 1.0550001 6.7138704e-39
0.0092897499 0.2029925 1.0580001 7.2753034e-39
0.011304394 0.2024169 1.0550001 8.20084e-39
0.013345378 0.2024169 1.0550001 9.6719988e-39
0.016056286 0.18649216 0.97200006 9.4850796e-39
0.017936701 0.18649216 0.97200006 9.0237427e-39
0.019817116 0.18649216 0.97200006 8.6556777e-39
0.023771999 0.18802707 0.98000002 7.8295183e-39
0.025667891 0.18802707 0.98000002 8.1982953e-39
0.027563781 0.18802707 0.98000002 9.7691971e-39
0.029459672 0.18802707 0.98000002 1.1528812e-38
-0.025364911 0.18875021 0.97400004 9.6716457e-39
-0.023480628 0.18875021 0.97400004 9.9478626e-39
-0.021596344 0.18875021 0.97400004 1.0312315e-38
-0.02135136 0.20444711 1.0550001 9.9442333e-39
-0.019310376 0.20444711 1.0550001 9.2030851e-39
-0.017269392 0.20444711 1.0550001 8.6535043e-39
-0.015185102 0.20386574 1.052 8.1903765e-39
-0.013149922 0.20386574 1.052 7.4549709e-39
-0.011146436 0.20444711 1.0550001 6.7174185e-39
-0.0090795597 0.20386574 1.052 6.3472094e-39
-0.0070644673 0.20444711 1.0550001 6.1635412e-39
-0.0050091981 0.20386574 1.052 6.3482898e-39
-0.0029740173 0.20386574 1.052 6.7170709e-39
-0.00093883649 0.20386574 1.052 7.3656633e-39
0.0010994708 0.20444711 1.0550001 8.284384e-39
0.0031404553 0.20444711 1.0550001 8.9293947e-39
0.0051814402 0.20444711 1.0550001 9.2967479e-39
0.0072224247 0.20444711 1.0550001 9.7580918e-39
0.0092634093 0.20444711 1.0550001 1.0314134e-38
0.011304394 0.20444711 1.0550001 1.0314137e-38
0.013345378 0.20444711 1.0550001 9.7613218e-39
0.015386363 0.20444711 1.0550001 9.299259e-39
0.016056286 0.18836263 0.97200006 8.8375578e-39
0.017936701 0.18836263 0.97200006 8.4709249e-39
0.019919055 0.18933158 0.97700006 8.1957757e-39
0.021876108 0.18991295 0.98000002 8.0128278e-39
0.023771999 0.18991295 0.98000002 8.0135467e-39
0.025667891 0.18991295 0.98000002 8.3816047e-39
0.027563781 0.18991295 0.98000002 9.3075015e-39
0.029459672 0.18991295 0.98000002 1.0606857e-38
-0.025651373 0.1927774 0.98500007 9.1134328e-39
-0.023432411 0.19023311 0.97200006 9.6683975e-39
-0.021551998 0.19023311 0.97200006 1.0221934e-38
-0.019671584 0.19023311 0.97200006 1.022374e-38
-0.019310376 0.20647731 1.0550001 9.9503878e-39
-0.017220283 0.20589016 1.052 9.6738009e-39
-0.015185102 0.20589016 1.052 9.303582e-39
-0.013149922 0.20589016 1.052 8.7504069e-39
-0.011146436 0.20647731 1.0550001 8.1068395e-39
-0.0091054514 0.20647731 1.0550001 7.8281058e-39
-0.0070644673 0.20647731 1.0550001 7.6458698e-39
-0.0050234827 0.20647731 1.0550001 7.829182e-39
-0.0029740173 0.20589016 1.052 8.2905203e-39
-0.00093883649 0.20589016 1.052 8.7522187e-39
0.0010994708 0.20647731 1.0550001 9.2121221e-39
0.0031404553 0.20647731 1.0550001 9.4883516e-39
0.0051814402 0.20647731 1.0550001 9.7649301e-39
0.0072224247 0.20647731 1.0550001 9.8560356e-39
0.0092634093 0.20647731 1.0550001 1.003826e-38
0.011304394 0.20647731 1.0550001 9.7602344e-39
0.013345378 0.20647731 1.0550001 9.1137916e-39
0.014175871 0.19023311 0.97200006 8.7442888e-39
0.016089324 0.19062455 0.97400004 8.4691354e-39
0.017973607 0.19062455 0.97400004 8.2865364e-39
0.019919055 0.19121169 0.97700006 8.0121047e-39
0.021876108 0.19179882 0.98000002 8.0128264e-39
0.023771999 0.19179882 0.98000002 8.1968589e-39
0.025746465 0.19238597 0.98300004 8.5652743e-39
0.02764816 0.19238597 0.98300004 9.2156604e-39
0.029549854 0.19238597 0.98300004 1.0238063e-38
0.031451549 0.19238597 0.98300004 1.198941e-38
-0.027724797 0.1958587 0.99100006 8.6528022e-39
-0.025807627 0.1958587 0.99100006 8.5598961e-39
-0.023818132 0.1952658 0.98800004 8.376951e-39
-0.021596344 0.19249888 0.97400004 8.2887169e-39
-0.019671584 0.19210359 0.97200006 8.6575092e-39
-0.017827777 0.19249888 0.97400004 9.2128325e-39
-0.0159926 0.19309178 0.97700006 9.3968637e-39
-0.01405921 0.19249888 0.97400004 9.3039478e-39
-0.013149922 0.20791461 1.052 9.395056e-39
-0.011146436 0.20850751 1.0550001 9.4865328e-39
-0.0091054514 0.20850751 1.0550001 9.4858181e-39
-0.0070443791 0.20791461 1.052 9.5780123e-39
-0.0050091981 0.20791461 1.052 9.7616819e-39
-0.0029740173 0.20791461 1.052 1.003719e-38
-0.00093883649 0.20791461 1.052 9.852807e-39
0.0010963443 0.20791461 1.052 9.3014381e-39
0.0031315251 0.20791461 1.052 9.0248568e-39
0.0051667062 0.20791461 1.052 9.0244924e-39
0.0072018867 0.20791461 1.052 8.7471811e-39
0.0092370678 0.20791461 1.052 8.2865589e-39
0.011272249 0.20791461 1.052 8.1018033e-39
0.012295458 0.19210359 0.97200006 8.1918381e-39
0.014175871 0.19210359 0.97200006 8.2840281e-39
0.016089324 0.19249888 0.97400004 8.2851015e-39
0.018028967 0.19309178 0.97700006 8.2861749e-39
0.019980218 0.1936847 0.98000002 8.1032214e-39
0.021943076 0.19427761 0.98300004 8.1039416e-39
0.023844771 0.19427761 0.98300004 8.3794495e-39
0.025746465 0.19427761 0.98300004 8.6556707e-39
0.027704414 0.1946729 0.98500007 9.2131464e-39
-0.027808726 0.19836444 0.99400002 8.4694886e-39
-0.025885751 0.19836444 0.99400002 8.3762209e-39
-0.023890454 0.19776575 0.99100006 8.1003585e-39
-0.021662863 0.19497189 0.97700006 7.8259296e-39
-0.019772775 0.19497189 0.97700006 8.1943478e-39
-0.017882688 0.19497189 0.97700006 8.7468041e-39
-0.0159926 0.19497189 0.97700006 8.9322786e-39
-0.014102515 0.19497189 0.97700006 9.0237553e-39
-0.012174927 0.19437321 0.97400004 9.2074235e-39
-0.010269513 0.19397408 0.97200006 9.3900211e-39
-0.0083890986 0.19397408 0.97200006 9.4818608e-39
-0.0065086847 0.19397408 0.97200006 9.4811434e-39
-0.0046282704 0.19397408 0.97200006 9.6648116e-39
-0.0027393752 0.19337539 0.96900004 9.8477595e-39
-0.00093526673 0.20914078 1.0480001 9.5718873e-39
0.0010963443 0.20993903 1.052 8.9275996e-39
0.0031315251 0.20993903 1.052 8.6510128e-39
0.0051470608 0.20914078 1.0480001 8.4666257e-39
0.0071745031 0.20914078 1.0480001 8.1904046e-39
0.0092019457 0.20914078 1.0480001 7.6397503e-39
0.010415044 0.19397408 0.97200006 7.6401048e-39
0.012295458 0.19397408 0.97200006 7.9156071e-39
0.01420504 0.19437321 0.97400004 8.1003515e-39
0.016089324 0.19437321 0.97400004 8.1936191e-39
0.018028967 0.19497189 0.97700006 8.1943352e-39
0.019980218 0.19557057 0.98000002 8.1028598e-39
0.021943076 0.19616926 0.98300004 8.1035787e-39
0.023893287 0.19656838 0.98500007 8.3794453e-39
0.02579885 0.19656838 0.98500007 8.6560266e-39
0.027788794 0.19716708 0.98800004 8.9372784e-39
-0.027892657 0.20088172 0.99700004 8.5620401e-39
-0.025885751 0.20027725 0.99400002 8.3769342e-39
-0.023890454 0.19967279 0.99100006 8.2851001e-39
-0.021662863 0.196852 0.97700006 8.1010676e-39
-0.019772775 0.196852 0.97700006 8.1936177e-39
-0.017882688 0.196852 0.97700006 8.4698487e-39
-0.0159926 0.196852 0.97700006 8.5631289e-39
-0.014102515 0.196852 0.97700006 8.5624129e-39
-0.012174927 0.19624753 0.97400004 8.5613367e-39
-0.010269513 0.19584456 0.97200006 8.5599031e-39
-0.0083890986 0.19584456 0.97200006 8.467353e-39
-0.0065086847 0.19584456 0.97200006 8.3748e-39
-0.0046282704 0.19584456 0.97200006 8.4666341e-39
-0.0027478563 0.19584456 0.97200006 8.5584626e-39
-0.00086744205 0.19584456 0.97200006 8.4669774e-39
0.0010129722 0.19584456 0.97200006 8.2829421e-39
0.0028933864 0.19584456 0.97200006 8.1907451e-39
0.0051470608 0.21115752 1.0480001 8.0985522e-39
0.0066336771 0.1952401 0.96900004 7.9148869e-39
0.0085346289 0.19584456 0.97200006 7.7319361e-39
0.010415044 0.19584456 0.97200006 7.7322921e-39
0.012295458 0.19584456 0.97200006 8.0081545e-39
0.01420504 0.19624753 0.97400004 8.100706e-39
0.016089324 0.19624753 0.97400004 8.1017808e-39
0.018028967 0.196852 0.97700006 8.1024969e-39
0.019980218 0.19745645 0.98000002 8.0113803e-39
0.021943076 0.19806091 0.98300004 8.1035773e-39
0.023893287 0.19846389 0.98500007 8.2879672e-39
0.025877425 0.19906835 0.98800004 8.4727115e-39
0.02787317 0.19967279 0.99100006 8.6614118e-39
0.029790342 0.19967279 0.99100006 9.4972765e-39
-0.039004881 0.21073331 1.036 7.7344431e-39
-0.037000652 0.21073331 1.036 8.2883273e-39
-0.035097767 0.21134354 1.039 8.8400591e-39
-0.033087734 0.21134354 1.039 8.8393417e-39
-0.027892657 0.2028003 0.99700004 8.4702018e-39
-0.025885751 0.20219007 0.99400002 8.2850945e-39
-0.023890454 0.20157984 0.99100006 8.193259e-39
-0.021795901 0.19995256 0.98300004 8.1017822e-39
-0.019894205 0.19995256 0.98300004 8.1939779e-39
-0.017937601 0.19934233 0.98000002 8.2865336e-39
-0.016041709 0.19934233 0.98000002 8.2872553e-39
-0.014102515 0.19873209 0.97700006 8.2861805e-39
-0.012212427 0.19873209 0.97700006 8.2847456e-39
-0.010290643 0.19812186 0.97400004 8.1911178e-39
-0.0084063597 0.19812186 0.97400004 8.0985649e-39
-0.0065220771 0.19812186 0.97400004 7.9145351e-39
-0.0046377936 0.19812186 0.97400004 8.0063706e-39
-0.0027535104 0.19812186 0.97400004 8.0985606e-39
-0.00086744205 0.19771504 0.97200006 8.0992725e-39
0.0010129722 0.19771504 0.97200006 8.0077929e-39
0.0028933864 0.19771504 0.97200006 8.0077915e-39
0.0047738007 0.19771504 0.97200006 7.9155973e-39
0.006654215 0.19771504 0.97200006 7.8241248e-39
0.0085346289 0.19771504 0.97200006 7.8244835e-39
0.010415044 0.19771504 0.97200006 7.8248408e-39
0.012295458 0.19771504 0.97200006 8.0088691e-39
0.01420504 0.19812186 0.97400004 8.0092265e-39
0.016138881 0.19873209 0.97700006 8.0095838e-39
0.018084327 0.19934233 0.98000002 8.0102999e-39
0.020041382 0.19995256 0.98300004 8.01066e-39
0.021987723 0.20035939 0.98500007 8.1032172e-39
0.023966059 0.20096962 0.98800004 8.2883245e-39
0.026034575 0.20219007 0.99400002 8.473429e-39
0.027957549 0.20219007 0.99400002 8.5692162e-39
-0.039004881 0.21272695 1.036 7.6418803e-39
-0.037107799 0.21334295 1.039 8.1046521e-39
-0.035097767 0.21334295 1.039 8.5645526e-39
-0.033087734 0.21334295 1.039 8.6556763e-39
-0.031167438 0.21395896 1.0420001 8.5627604e-39
-0.027808726 0.20410289 0.99400002 8.2865294e-39
-0.025885751 0.20410289 0.99400002 8.0099453e-39
-0.023890454 0.20348687 0.99100006 8.0095866e-39
-0.021795901 0.20184422 0.98300004 8.0099467e-39
-0.019894205 0.20184422 0.98300004 8.1025011e-39
-0.017992511 0.20184422 0.98300004 8.1946967e-39
-0.016041709 0.2012282 0.98000002 8.1950555e-39
-0.014145818 0.2012282 0.98000002 8.1943394e-39
-0.012212427 0.2006122 0.97700006 8.1010704e-39
-0.01032234 0.2006122 0.97700006 8.0074398e-39
-0.0084322533 0.2006122 0.97700006 8.0067223e-39
-0.0065421658 0.2006122 0.97700006 7.9145281e-39
-0.0046520787 0.2006122 0.97700006 7.9145281e-39
-0.0027535104 0.19999619 0.97400004 8.0070797e-39
-0.00086922693 0.19999619 0.97400004 8.0077929e-39
0.0010150565 0.19999619 0.97400004 7.9163148e-39
0.0028993399 0.19999619 0.97400004 7.915956e-39
0.0047836234 0.19999619 0.97400004 7.915956e-39
0.0066679069 0.19999619 0.97400004 7.9163176e-39
0.0085346289 0.19958551 0.97200006 7.9166735e-39
0.010436474 0.19999619 0.97400004 7.916312e-39
0.012320757 0.19999619 0.97400004 7.916312e-39
0.014248793 0.2006122 0.97700006 8.0092251e-39
0.016188435 0.2012282 0.98000002 8.0099425e-39
0.018139686 0.20184422 0.98300004 8.1017766e-39
0.020082159 0.20225488 0.98500007 8.0103013e-39
0.022121657 0.20348687 0.99100006 8.0113817e-39
0.024111599 0.20410289 0.99400002 8.1961289e-39
0.026113151 0.20471889 0.99700004 8.379797e-39
0.028126309 0.2053349 1 8.3837487e-39
-0.039117828 0.21534237 1.039 7.8266191e-39
-0.037107799 0.21534237 1.039 8.1964862e-39
-0.035097767 0.21534237 1.039 8.4727214e-39
-0.033183269 0.21596415 1.0420001 8.4720137e-39
-0.031167438 0.21596415 1.0420001 8.4705718e-39
-0.027892657 0.20663749 0.99700004 8.2861735e-39
-0.025963878 0.20663749 0.99700004 8.0099467e-39
-0.023962777 0.20601571 0.99400002 8.0095866e-39
-0.021906763 0.20477216 0.98800004 8.009588e-39
-0.019995395 0.20477216 0.98800004 8.0103069e-39
-0.018029118 0.20415038 0.98500007 8.1021424e-39
-0.016090816 0.20373586 0.98300004 8.1028584e-39
-0.014189121 0.20373586 0.98300004 8.1943366e-39
-0.012249927 0.20311408 0.98000002 8.1010662e-39
-0.010354036 0.20311408 0.98000002 7.916319e-39
-0.0084322533 0.2024923 0.97700006 7.8234059e-39
-0.0065421658 0.2024923 0.97700006 7.7315704e-39
-0.0046520787 0.2024923 0.97700006 7.7315704e-39
-0.0027619915 0.2024923 0.97700006 7.8237632e-39
-0.00086922693 0.20187052 0.97400004 7.8241191e-39
0.001018183 0.2024923 0.97700006 7.8244779e-39
0.0029082701 0.2024923 0.97700006 7.8241205e-39
0.0047983569 0.2024923 0.97700006 7.7322865e-39
0.0067089819 0.20311408 0.98000002 7.7326452e-39
0.008604873 0.20311408 0.98000002 7.9166721e-39
0.010500764 0.20311408 0.98000002 8.0081419e-39
0.012396655 0.20311408 0.98000002 7.9159476e-39
0.014336298 0.20373586 0.98300004 7.9170294e-39
0.016271031 0.20415038 0.98500007 8.0103027e-39
0.018176595 0.20415038 0.98500007 8.01066e-39
0.020204484 0.20539393 0.99100006 7.9188245e-39
0.022188624 0.20601571 0.99400002 7.9195448e-39
0.02418437 0.20663749 0.99700004 8.1035745e-39
0.026113151 0.20663749 0.99700004 8.2876e-39
0.028210687 0.20788105 1.003 8.3837459e-39
-0.039117828 0.21734178 1.039 8.2883035e-39
-0.037107799 0.21734178 1.039 8.3797942e-39
-0.035199106 0.21796933 1.0420001 8.3805229e-39
-0.033278808 0.21859689 1.0450001 8.4727284e-39
-0.031167438 0.21796933 1.0420001 8.4709291e-39
-0.029151604 0.21796933 1.0420001 8.3776517e-39
-0.026042003 0.20918362 1 8.193259e-39
-0.024035098 0.20855607 0.99700004 8.1014193e-39
-0.021973284 0.20730096 0.99100006 8.0092265e-39
-0.019995395 0.20667343 0.98800004 8.0092293e-39
-0.018029118 0.20604588 0.98500007 8.0099481e-39
-0.016090816 0.2056275 0.98300004 8.1946953e-39
-0.014189121 0.2056275 0.98300004 8.3780062e-39
-0.012287427 0.2056275 0.98300004 8.1928989e-39
-0.010385732 0.2056275 0.98300004 7.9166735e-39
-0.008458145 0.20499995 0.98000002 7.7326438e-39
-0.0065823426 0.2056275 0.98300004 7.5482553e-39
-0.0046663634 0.20499995 0.98000002 7.6400908e-39
-0.0027704723 0.20499995 0.98000002 7.7322837e-39
-0.00087458151 0.20499995 0.98000002 7.7322822e-39
0.0010213094 0.20499995 0.98000002 7.7322822e-39
0.0029172003 0.20499995 0.98000002 7.6408069e-39
0.0048130914 0.20499995 0.98000002 7.3649431e-39
0.0067295199 0.2056275 0.98300004 7.5486155e-39
0.0086312145 0.2056275 0.98300004 8.0081489e-39
0.010532909 0.2056275 0.98300004 8.0999774e-39
0.012434604 0.2056275 0.98300004 8.0081419e-39
0.014365466 0.20604588 0.98500007 7.9170322e-39
0.016271031 0.20604588 0.98500007 8.0099467e-39
0.018231956 0.20667343 0.98800004 8.0106628e-39
0.020204484 0.20730096 0.99100006 7.8273491e-39
0.022188624 0.20792852 0.99400002 7.8277093e-39
0.024111599 0.20792852 0.99400002 8.1032158e-39
-0.039230775 0.21997452 1.0420001 8.9329442e-39
-0.037322089 0.22060785 1.0450001 8.7474908e-39
-0.035199106 0.21997452 1.0420001 8.4716339e-39
-0.033278808 0.22060785 1.0450001 8.4720011e-39
-0.031167438 0.21997452 1.0420001 8.4705648e-39
-0.029151604 0.21997452 1.0420001 8.3772915e-39
-0.026120128 0.21174131 1.003 8.1932576e-39
-0.024107421 0.21110798 1 8.1014165e-39
-0.022039801 0.20984134 0.99400002 8.0095824e-39
-0.020116827 0.20984134 0.99400002 7.917391e-39
-0.018138941 0.20920801 0.99100006 8.0099481e-39
-0.016123554 0.20794137 0.98500007 8.1025039e-39
-0.014261294 0.2085747 0.98800004 8.2868896e-39
-0.012312427 0.20794137 0.98500007 8.1017766e-39
-0.010406863 0.20794137 0.98500007 7.8251925e-39
-0.0084840367 0.20751916 0.98300004 7.6408027e-39
-0.0065823426 0.20751916 0.98300004 7.5478924e-39
-0.004680648 0.20751916 0.98300004 7.5478938e-39
-0.0027789534 0.20751916 0.98300004 7.7319221e-39
-0.00087725878 0.20751916 0.98300004 7.7319207e-39
0.0010244359 0.20751916 0.98300004 7.7319207e-39
0.0029261305 0.20751916 0.98300004 7.5482497e-39
0.0048278254 0.20751916 0.98300004 7.456417e-39
0.0067295199 0.20751916 0.98300004 7.5482567e-39
0.0086487755 0.20794137 0.98500007 7.9159574e-39
0.010532909 0.20751916 0.98300004 8.0081461e-39
0.012459903 0.20794137 0.98500007 7.9166707e-39
0.01440922 0.2085747 0.98800004 7.9173952e-39
0.016370142 0.20920801 0.99100006 8.0103097e-39
0.018287314 0.20920801 0.99100006 8.0110229e-39
0.02026565 0.20984134 0.99400002 7.8269904e-39
0.022188624 0.20984134 0.99400002 7.9188273e-39
0.024402685 0.21237464 1.006 8.102141e-39
-0.039343726 0.2226188 1.0450001 9.6730176e-39
-0.037322089 0.2226188 1.0450001 9.2073857e-39
-0.035300449 0.2226188 1.0450001 8.6545847e-39
-0.033278808 0.2226188 1.0450001 8.5627548e-39
-0.031167438 0.22197971 1.0420001 8.4702018e-39
-0.029151604 0.22197971 1.0420001 8.285812e-39
-0.026120128 0.21367145 1.003 8.1936121e-39
-0.024179742 0.21367145 1.003 8.0099341e-39
-0.022172838 0.21303235 1 7.8262645e-39
-0.020116827 0.21175416 0.99400002 7.9177469e-39
-0.018193852 0.21175416 0.99400002 8.0095866e-39
-0.016221769 0.21111506 0.99100006 8.0103083e-39
-0.014304597 0.21111506 0.99100006 8.102857e-39
-0.012349926 0.21047597 0.98800004 8.0102985e-39
-0.010438559 0.21047597 0.98800004 7.7333528e-39
-0.0085012987 0.20983687 0.98500007 7.6404383e-39
-0.0065957354 0.20983687 0.98500007 7.5478868e-39
-0.0046901717 0.20983687 0.98500007 7.6393678e-39
-0.0027846075 0.20983687 0.98500007 7.8230387e-39
-0.00087904366 0.20983687 0.98500007 7.8237562e-39
0.0010265202 0.20983687 0.98500007 7.7319193e-39
0.002932084 0.20983687 0.98500007 7.7315564e-39
0.0048523815 0.21047597 0.98800004 7.6397237e-39
0.0067637493 0.21047597 0.98800004 7.7319235e-39
0.008675117 0.21047597 0.98800004 7.8244793e-39
0.010586484 0.21047597 0.98800004 7.9163106e-39
0.012497852 0.21047597 0.98800004 7.8255527e-39
0.014452972 0.21111506 0.99100006 7.9181112e-39
0.016370142 0.21111506 0.99100006 7.91847e-39
0.018342674 0.21175416 0.99400002 7.9188259e-39
0.020449143 0.21367145 1.003 7.9184658e-39
0.022456497 0.21431056 1.006 7.9181098e-39
0.024402685 0.21431056 1.006 8.1021382e-39
-0.035199106 0.2239849 1.0420001 8.7457027e-39
-0.033183269 0.2239849 1.0420001 8.5616758e-39
-0.031077705 0.22334002 1.039 8.470199e-39
-0.029067673 0.22334002 1.039 8.2858092e-39
-0.026120128 0.21560159 1.003 8.1936051e-39
-0.024179742 0.21560159 1.003 8.0099243e-39
-0.02210632 0.21431184 0.99700004 7.918093e-39
-0.020177541 0.21431184 0.99700004 7.9177427e-39
-0.018303674 0.21495672 1 8.0092237e-39
-0.016270876 0.21366698 0.99400002 8.1014221e-39
-0.014347902 0.21366698 0.99400002 8.1936135e-39
-0.012424926 0.21366698 0.99400002 7.9177441e-39
-0.010470254 0.2130221 0.99100006 7.5493203e-39
-0.0085530831 0.2130221 0.99100006 7.5485972e-39
-0.0066359118 0.2130221 0.99100006 7.5478812e-39
-0.0047187405 0.2130221 0.99100006 7.6390048e-39
-0.0028015696 0.2130221 0.99100006 7.82268e-39
-0.00088172092 0.21237724 0.98800004 7.8230401e-39
0.0010296466 0.21237724 0.98800004 7.7319179e-39
0.0029499445 0.2130221 0.99100006 7.7319109e-39
0.004867116 0.2130221 0.99100006 7.6400754e-39
0.0067842873 0.2130221 0.99100006 7.7322766e-39
0.0087014586 0.2130221 0.99100006 7.7326396e-39
0.01061863 0.2130221 0.99100006 7.8244737e-39
0.012535801 0.2130221 0.99100006 7.8251925e-39
0.014496724 0.21366698 0.99400002 7.9177455e-39
0.016419699 0.21366698 0.99400002 8.0099397e-39
0.018398035 0.21431184 0.99700004 8.1017738e-39
0.020510307 0.21624646 1.006 8.0095796e-39
0.022456497 0.21624646 1.006 7.9177483e-39
0.024402685 0.21624646 1.006 7.9177455e-39
-0.033183269 0.22599009 1.0420001 8.6527952e-39
-0.031077705 0.22533943 1.039 8.561317e-39
-0.029067673 0.22533943 1.039 8.3776433e-39
-0.027057642 0.22533943 1.039 8.1936051e-39
-0.024444925 0.2199174 1.0140001 8.1017612e-39
-0.022416739 0.21926677 1.011 8.0095712e-39
-0.020359684 0.21818237 1.006 8.0095768e-39
-0.018413495 0.21818237 1.006 8.1010578e-39
-0.016418198 0.21753173 1.003 8.285449e-39
-0.014434508 0.21688108 1 8.3772831e-39
-0.012462426 0.21623044 0.99700004 8.0092209e-39
-0.010533647 0.21623044 0.99700004 7.3656493e-39
-0.0086048683 0.21623044 0.99700004 7.2734495e-39
-0.0066560009 0.21557979 0.99400002 7.3645689e-39
-0.0047330256 0.21557979 0.99400002 7.5475281e-39
-0.0028100505 0.21557979 0.99400002 7.6390076e-39
-0.00088439824 0.21492915 0.99100006 7.7312018e-39
0.0010327731 0.21492915 0.99100006 7.6397223e-39
0.0029588747 0.21557979 0.99400002 7.6397153e-39
0.0048818495 0.21557979 0.99400002 7.6400754e-39
0.0068048248 0.21557979 0.99400002 7.6407985e-39
0.0087277992 0.21557979 0.99400002 7.6408013e-39
0.010650774 0.21557979 0.99400002 7.7329955e-39
0.01257375 0.21557979 0.99400002 7.8251897e-39
0.014540478 0.21623044 0.99700004 8.0099369e-39
0.016469257 0.21623044 0.99700004 8.285442e-39
0.018453395 0.21688108 1 8.2850819e-39
0.020551082 0.21861613 1.008 8.0095782e-39
0.022501141 0.21861613 1.008 7.8259128e-39
0.0244512 0.21861613 1.008 7.6429565e-39
-0.031077705 0.22733885 1.039 8.6535127e-39
-0.028983742 0.22668242 1.036 8.3772845e-39
-0.026562842 0.22318155 1.0200001 8.1936093e-39
-0.024517246 0.22252513 1.0170001 8.1014109e-39
-0.022483258 0.22186871 1.0140001 8.0095754e-39
-0.020460876 0.22121231 1.011 8.0095768e-39
-0.018450102 0.22055589 1.008 8.1014151e-39
-0.016467305 0.22011828 1.006 8.1936121e-39
-0.014477811 0.21946186 1.003 8.376923e-39
-0.012537424 0.21946186 1.003 8.0092195e-39
-0.010597039 0.21946186 1.003 7.4578464e-39
-0.0086566526 0.21946186 1.003 7.3656493e-39
-0.0066961776 0.21880545 1 7.3645731e-39
-0.0047473107 0.21814902 0.99700004 7.4556926e-39
-0.0028185316 0.21814902 0.99700004 7.5471693e-39
-0.0008870755 0.21749261 0.99400002 7.5475267e-39
0.0010358995 0.21749261 0.99400002 7.5475253e-39
0.0029588747 0.21749261 0.99400002 7.5478826e-39
0.0048818495 0.21749261 0.99400002 7.6400782e-39
0.0068253623 0.21814902 0.99700004 7.6407985e-39
0.0087541407 0.21814902 0.99700004 7.6411572e-39
0.01068292 0.21814902 0.99700004 7.6415173e-39
0.012611698 0.21814902 0.99700004 7.7337116e-39
0.01458423 0.21880545 1 7.9181e-39
0.01656837 0.21946186 1.003 8.1932464e-39
0.018564116 0.22011828 1.006 8.1928863e-39
0.020673409 0.22186871 1.0140001 7.8262645e-39
