# .PCD v0.7 - Point Cloud Data file format
VERSION 0.7
FIELDS x y z rgb
SIZE 4 4 4 4
TYPE F F F F
COUNT 1 1 1 1
WIDTH 982
HEIGHT 1
VIEWPOINT 0 0 0 1 0 0 0
POINTS 982
DATA ascii
-0.37321231 -0.35475612 0.27494204 1.0063367e-38
-0.32142887 -0.35415441 0.27214968 1.0063367e-38
-0.31535283 -0.35356921 0.27707502 1.0063367e-38
-0.37581557 -0.34504232 0.27524176 1.0063367e-38
-0.32022911 -0.34590024 0.27129653 1.0063367e-38
-0.31457293 -0.34563658 0.27594465 1.0063367e-38
-0.30889487 -0.34177381 0.27980357 1.0063367e-38
-0.38066325 -0.33567625 0.27853727 1.0063367e-38
-0.37706494 -0.33471474 0.27360758 1.0063367e-38
-0.3139821 -0.33512303 0.27407777 1.0063367e-38
-0.30783546 -0.33436245 0.27902272 1.0063367e-38
-0.38267097 -0.32540262 0.27789542 1.0063367e-38
-0.37874988 -0.32462871 0.27260947 1.0063367e-38
-0.31314477 -0.32475969 0.27244985 1.0063367e-38
-0.30626544 -0.32331049 0.27784988 1.0063367e-38
-0.38322455 -0.31492507 0.27531937 1.0063367e-38
-0.31073558 -0.31383759 0.27200446 1.0063367e-38
-0.30577314 -0.31418237 0.27621174 1.0063367e-38
-0.38558212 -0.3036415 0.27481052 1.0063367e-38
-0.31087515 -0.3069711 0.27034795 1.0063367e-38
-0.30420408 -0.30560094 0.27559233 1.0063367e-38
-0.29906437 -0.30409485 0.2795319 1.0063367e-38
-0.39016008 -0.29656768 0.2784788 1.0063367e-38
-0.386585 -0.29386812 0.2730332 1.0063367e-38
-0.30448768 -0.29606766 0.27321762 1.0063367e-38
-0.29796749 -0.29415041 0.27821374 1.0063367e-38
-0.39150721 -0.28609622 0.27692506 1.0063367e-38
-0.38874462 -0.28637964 0.27346063 1.0063367e-38
-0.30223107 -0.28529191 0.27267808 1.0063367e-38
-0.29638273 -0.2847628 0.27742654 1.0063367e-38
-0.39361387 -0.27511603 0.27618891 1.0063367e-38
-0.38917077 -0.27655444 0.27092546 1.0063367e-38
-0.30163556 -0.27686876 0.27128419 1.0063367e-38
-0.29451761 -0.27385435 0.27653176 1.0063367e-38
-0.39558157 -0.26455683 0.27540603 1.0063367e-38
-0.29466477 -0.26384532 0.27416429 1.0063367e-38
-0.28962311 -0.26348865 0.27827999 1.0063367e-38
-0.40140671 -0.25317577 0.27932698 1.0063367e-38
-0.39666805 -0.25585863 0.27407384 1.0063367e-38
-0.2940149 -0.2542327 0.27254888 1.0063367e-38
-0.28725737 -0.25437406 0.2782042 1.0063367e-38
-0.4031238 -0.2441918 0.27871609 1.0063367e-38
-0.39897966 -0.24669781 0.27417219 1.0063367e-38
-0.29313263 -0.24451798 0.27110383 1.0063367e-38
-0.28676841 -0.24610227 0.27675551 1.0063367e-38
-0.40286362 -0.23565966 0.27570391 1.0063367e-38
-0.39841053 -0.23614217 0.27012751 1.0063367e-38
-0.29222038 -0.23908217 0.27064377 1.0063367e-38
-0.28495312 -0.23485693 0.2757436 1.0063367e-38
-0.40447417 -0.22571364 0.27465415 1.0063367e-38
-0.28409418 -0.22565719 0.27439472 1.0063367e-38
-0.27820575 -0.22074214 0.27824414 1.0063367e-38
-0.41064224 -0.21243076 0.27841926 1.0063367e-38
-0.40608388 -0.21622913 0.2737481 1.0063367e-38
-0.28355807 -0.21444586 0.27232584 1.0063367e-38
-0.27864167 -0.21306376 0.27648997 1.0063367e-38
-0.41251349 -0.20429221 0.278272 1.0063367e-38
-0.40767866 -0.20405567 0.27197897 1.0063367e-38
-0.2829867 -0.20568487 0.27083591 1.0063367e-38
-0.27837169 -0.20483932 0.27546892 1.0063367e-38
-0.41332912 -0.19461644 0.27628464 1.0063367e-38
-0.40935344 -0.19696444 0.27190775 1.0063367e-38
-0.28069979 -0.19507042 0.27679712 1.0063367e-38
-0.27810425 -0.19619958 0.27376837 1.0063367e-38
-0.4145771 -0.18507454 0.27489531 1.0063367e-38
-0.28282064 -0.18272115 0.27766669 1.0063367e-38
-0.2790944 -0.18560991 0.27282739 1.0063367e-38
-0.42163491 -0.17042749 0.27937669 1.0063367e-38
-0.4170967 -0.17609376 0.27531776 1.0063367e-38
-0.2827045 -0.17444329 0.27491951 1.0063367e-38
-0.27963752 -0.17523061 0.27122176 1.0063367e-38
-0.42127693 -0.16477917 0.27714363 1.0063367e-38
-0.41655248 -0.16589992 0.2714186 1.0063367e-38
-0.28535104 -0.16500734 0.2753624 1.0063367e-38
-0.42266458 -0.15592657 0.27694333 1.0063367e-38
-0.41541839 -0.1534999 0.27523637 1.0063367e-38
-0.40415898 -0.15267169 0.27571192 1.0063367e-38
-0.39397264 -0.15240316 0.27508828 1.0063367e-38
-0.38523954 -0.15200481 0.2752012 1.0063367e-38
-0.37528735 -0.15137975 0.27598941 1.0063367e-38
-0.3646861 -0.15128079 0.27464479 1.0063367e-38
-0.353957 -0.15128833 0.27286845 1.0063367e-38
-0.34583855 -0.15055662 0.2743668 1.0063367e-38
-0.33602321 -0.1509223 0.27135974 1.0063367e-38
-0.32697338 -0.15025999 0.27243882 1.0063367e-38
-0.31995213 -0.15006293 0.27205473 1.0063367e-38
-0.29077047 -0.15025601 0.27770269 1.0063367e-38
-0.28712869 -0.15501527 0.27451262 1.0063367e-38
-0.35405788 -0.14969015 0.27904418 1.0063367e-38
-0.34416404 -0.14954489 0.27799338 1.0063367e-38
-0.33354035 -0.14927669 0.27729744 1.0063367e-38
-0.32578176 -0.14906454 0.27685142 1.0063367e-38
-0.31512901 -0.14874659 0.2763415 1.0063367e-38
-0.30681729 -0.14897437 0.2741099 1.0063367e-38
-0.29528376 -0.14826445 0.27600732 1.0063367e-38
-0.2885142 -0.14901844 0.27149212 1.0063367e-38
-0.37087873 -0.40493619 0.2879588 1.0063367e-38
-0.36575216 -0.40684578 0.28475046 1.0063367e-38
-0.3551262 -0.40897408 0.28537092 1.0063367e-38
-0.34491742 -0.40891862 0.28392816 1.0063367e-38
-0.33516917 -0.40793046 0.28615519 1.0063367e-38
-0.32468364 -0.4062019 0.28375313 1.0063367e-38
-0.31750724 -0.40424785 0.28745842 1.0063367e-38
-0.37254992 -0.39397356 0.28639784 1.0063367e-38
-0.3688482 -0.39299166 0.28132844 1.0063367e-38
-0.32216778 -0.39664501 0.28106755 1.0063367e-38
-0.31533146 -0.39428753 0.28622729 1.0063367e-38
-0.37341398 -0.38591731 0.2849808 1.0063367e-38
-0.36895984 -0.38842177 0.28003776 1.0063367e-38
-0.31394026 -0.38523334 0.28535384 1.0063367e-38
-0.3758522 -0.37448967 0.28453037 1.0063367e-38
-0.31472027 -0.37625569 0.2826907 1.0063367e-38
-0.30854291 -0.37515905 0.28758574 1.0063367e-38
-0.38125798 -0.3668144 0.28907442 1.0063367e-38
-0.37687108 -0.36408764 0.28257623 1.0063367e-38
-0.31280917 -0.36586905 0.28195116 1.0063367e-38
-0.30830333 -0.36674708 0.28589809 1.0063367e-38
-0.38215572 -0.35409552 0.28623745 1.0063367e-38
-0.37776512 -0.35382333 0.28050476 1.0063367e-38
-0.31168371 -0.35647225 0.28077987 1.0063367e-38
-0.30511042 -0.35504717 0.28593081 1.0063367e-38
-0.38364404 -0.34490964 0.2852689 1.0063367e-38
-0.30540234 -0.3449994 0.28343385 1.0063367e-38
-0.38565874 -0.33466253 0.2846444 1.0063367e-38
-0.30284667 -0.3345688 0.28322092 1.0063367e-38
-0.29747063 -0.3326695 0.287269 1.0063367e-38
-0.39055514 -0.32367206 0.28749317 1.0063367e-38
-0.38660872 -0.32458276 0.28270289 1.0063367e-38
-0.30348966 -0.32719222 0.28103089 1.0063367e-38
-0.29667413 -0.32394862 0.28597528 1.0063367e-38
-0.39199919 -0.31518811 0.28668806 1.0063367e-38
-0.38845509 -0.31422573 0.28182739 1.0063367e-38
-0.30001268 -0.31253776 0.28063673 1.0063367e-38
-0.29529044 -0.31614435 0.28537592 1.0063367e-38
-0.39363405 -0.30584398 0.28585836 1.0063367e-38
-0.38958782 -0.30538505 0.28050983 1.0063367e-38
-0.29397747 -0.30593166 0.28417745 1.0063367e-38
-0.28754023 -0.30466059 0.28924957 1.0063367e-38
-0.39530811 -0.29547265 0.28475681 1.0063367e-38
-0.29267406 -0.29659402 0.28316718 1.0063367e-38
-0.28771475 -0.29205871 0.286277 1.0063367e-38
-0.40209064 -0.28388724 0.28984475 1.0063367e-38
-0.3974025 -0.28469384 0.28406784 1.0063367e-38
-0.290575 -0.28632396 0.28261012 1.0063367e-38
-0.28616786 -0.28460142 0.28589138 1.0063367e-38
-0.40123516 -0.27546442 0.28610095 1.0063367e-38
-0.39830422 -0.27428454 0.28196096 1.0063367e-38
-0.29010487 -0.27700946 0.28091168 1.0063367e-38
-0.28441608 -0.27655274 0.28554359 1.0063367e-38
-0.27805895 -0.2720069 0.28981429 1.0063367e-38
-0.40331751 -0.2655949 0.28568208 1.0063367e-38
-0.2843459 -0.26630747 0.28330395 1.0063367e-38
-0.27851182 -0.26565862 0.28801349 1.0063367e-38
-0.40492001 -0.25624511 0.28480908 1.0063367e-38
-0.28254044 -0.25658807 0.28262615 1.0063367e-38
-0.27673706 -0.25427675 0.28733629 1.0063367e-38
-0.41110283 -0.24361229 0.2887972 1.0063367e-38
-0.40694839 -0.24615985 0.28425306 1.0063367e-38
-0.28096837 -0.24496618 0.28132743 1.0063367e-38
-0.27647305 -0.24452826 0.28622043 1.0063367e-38
-0.41261306 -0.23538263 0.28815702 1.0063367e-38
-0.40787849 -0.23447892 0.28178358 1.0063367e-38
-0.2807852 -0.23841117 0.28000945 1.0063367e-38
-0.27694249 -0.23482661 0.28470832 1.0063367e-38
-0.41395685 -0.22440371 0.28643999 1.0063367e-38
-0.40983397 -0.22420666 0.28107521 1.0063367e-38
-0.28102493 -0.22579369 0.28887436 1.0063367e-38
-0.27756953 -0.22570018 0.28330487 1.0063367e-38
-0.41489601 -0.21581233 0.28495181 1.0063367e-38
-0.28301245 -0.21526569 0.28812686 1.0063367e-38
-0.27870512 -0.2160784 0.28284162 1.0063367e-38
-0.42120838 -0.20252344 0.28890064 1.0063367e-38
-0.41607413 -0.20618398 0.28344551 1.0063367e-38
-0.28380346 -0.20401222 0.28561258 1.0063367e-38
-0.27998751 -0.2056274 0.28121144 1.0063367e-38
-0.42147335 -0.19386694 0.28652471 1.0063367e-38
-0.41754055 -0.19648558 0.28228813 1.0063367e-38
-0.28559765 -0.19513926 0.28513578 1.0063367e-38
-0.42417717 -0.18313494 0.28663453 1.0063367e-38
-0.41875368 -0.1879279 0.28116274 1.0063367e-38
-0.29016188 -0.1863284 0.28824139 1.0063367e-38
-0.28597155 -0.18624142 0.2828244 1.0063367e-38
-0.42487407 -0.17512877 0.28501841 1.0063367e-38
-0.29214126 -0.17588101 0.2875087 1.0063367e-38
-0.28759545 -0.17690639 0.28198341 1.0063367e-38
-0.43182325 -0.16058759 0.28939348 1.0063367e-38
-0.42675251 -0.16578177 0.28450114 1.0063367e-38
-0.29359636 -0.16558051 0.28614721 1.0063367e-38
-0.28922337 -0.16607267 0.28067738 1.0063367e-38
-0.43151772 -0.15303381 0.28715962 1.0063367e-38
-0.42576304 -0.15307136 0.2844803 1.0063367e-38
-0.41500711 -0.15067501 0.28517297 1.0063367e-38
-0.40533456 -0.1508868 0.28278151 1.0063367e-38
-0.39494801 -0.15040235 0.2829574 1.0063367e-38
-0.38444501 -0.15022799 0.28191894 1.0063367e-38
-0.29606307 -0.15429966 0.28577918 1.0063367e-38
-0.40343055 -0.14957345 0.28753275 1.0063367e-38
-0.39359072 -0.14944711 0.28641713 1.0063367e-38
-0.38447285 -0.14907581 0.28636348 1.0063367e-38
-0.37379569 -0.14908884 0.28457522 1.0063367e-38
-0.36448914 -0.14848202 0.28539902 1.0063367e-38
-0.35569111 -0.14811666 0.28537425 1.0063367e-38
-0.3454144 -0.1478291 0.28480914 1.0063367e-38
-0.33615968 -0.14741254 0.28490803 1.0063367e-38
-0.32491818 -0.14720729 0.28386831 1.0063367e-38
-0.31543776 -0.14622074 0.28612584 1.0063367e-38
-0.30525216 -0.1463514 0.28478426 1.0063367e-38
-0.29795742 -0.14652732 0.28374279 1.0063367e-38
-0.37535593 -0.40496361 0.29634258 1.0063367e-38
-0.36556226 -0.40690649 0.2950424 1.0063367e-38
-0.35508966 -0.40646362 0.29504639 1.0063367e-38
-0.34515595 -0.40624103 0.29428884 1.0063367e-38
-0.33506793 -0.40553516 0.29537016 1.0063367e-38
-0.32483721 -0.40501896 0.29569665 1.0063367e-38
-0.31437752 -0.40442535 0.29496026 1.0063367e-38
-0.30767408 -0.4036884 0.29662502 1.0063367e-38
-0.38141483 -0.39353323 0.29766193 1.0063367e-38
-0.37745008 -0.3945663 0.29288664 1.0063367e-38
-0.3105104 -0.39681762 0.29080698 1.0063367e-38
-0.30508161 -0.39616022 0.29517734 1.0063367e-38
-0.29909232 -0.39170659 0.29916233 1.0063367e-38
-0.38211396 -0.38415813 0.29561883 1.0063367e-38
-0.3778137 -0.38447356 0.29018664 1.0063367e-38
-0.30438989 -0.38597712 0.29346889 1.0063367e-38
-0.29836375 -0.38497728 0.29825959 1.0063367e-38
-0.38434687 -0.37547657 0.29576632 1.0063367e-38
-0.30347127 -0.37625894 0.29205337 1.0063367e-38
-0.29663703 -0.3738094 0.29719159 1.0063367e-38
-0.39002937 -0.36491284 0.2997601 1.0063367e-38
-0.38573161 -0.36561021 0.29445085 1.0063367e-38
-0.30183089 -0.36538917 0.29098022 1.0063367e-38
-0.2951571 -0.36410803 0.29624698 1.0063367e-38
-0.39105988 -0.35320133 0.29741001 1.0063367e-38
-0.3875317 -0.35418504 0.29318047 1.0063367e-38
-0.29427457 -0.35508007 0.2949563 1.0063367e-38
-0.28982538 -0.35680139 0.29904509 1.0063367e-38
-0.39373824 -0.3442893 0.29805821 1.0063367e-38
-0.38859814 -0.34579977 0.29192036 1.0063367e-38
-0.29482037 -0.34685183 0.29265624 1.0063367e-38
-0.28821513 -0.34483284 0.29770035 1.0063367e-38
-0.39344153 -0.33595487 0.29506069 1.0063367e-38
-0.29222304 -0.33610523 0.29240701 1.0063367e-38
-0.28609082 -0.33600408 0.29748756 1.0063367e-38
-0.39555201 -0.32576463 0.2945773 1.0063367e-38
-0.29210275 -0.3261528 0.29027426 1.0063367e-38
-0.28463936 -0.32449847 0.2961143 1.0063367e-38
-0.39761972 -0.3150799 0.29388365 1.0063367e-38
-0.2837809 -0.3150149 0.2947011 1.0063367e-38
-0.27791089 -0.31396949 0.29935151 1.0063367e-38
-0.40237722 -0.30475724 0.29676333 1.0063367e-38
-0.39843482 -0.30608287 0.29210842 1.0063367e-38
-0.2834332 -0.30444735 0.29261968 1.0063367e-38
-0.277688 -0.30410618 0.29732436 1.0063367e-38
-0.40284318 -0.29463512 0.29418579 1.0063367e-38
-0.28243861 -0.29382145 0.29106352 1.0063367e-38
-0.27647132 -0.29508248 0.29656491 1.0063367e-38
-0.40609118 -0.28620592 0.29571816 1.0063367e-38
-0.27582395 -0.28487366 0.29563859 1.0063367e-38
-0.41174948 -0.2747716 0.29940742 1.0063367e-38
-0.40676093 -0.27555177 0.29323584 1.0063367e-38
-0.27657381 -0.27533185 0.29421082 1.0063367e-38
-0.41241214 -0.26471502 0.29710382 1.0063367e-38
-0.4081901 -0.26547226 0.29191092 1.0063367e-38
-0.27586019 -0.26456511 0.29372677 1.0063367e-38
-0.41288707 -0.25429785 0.29444557 1.0063367e-38
-0.28118962 -0.25667614 0.29877788 1.0063367e-38
-0.27748579 -0.25500852 0.29329199 1.0063367e-38
-0.4160628 -0.24550836 0.2957719 1.0063367e-38
-0.2827014 -0.24274157 0.29634938 1.0063367e-38
-0.27722114 -0.2469435 0.29061913 1.0063367e-38
-0.42143047 -0.23290989 0.29872224 1.0063367e-38
-0.41623074 -0.23675752 0.29324171 1.0063367e-38
-0.28469163 -0.23533623 0.29658532 1.0063367e-38
-0.27998978 -0.23659468 0.29093236 1.0063367e-38
-0.42158732 -0.22441697 0.29625866 1.0063367e-38
-0.41812226 -0.22650805 0.29245815 1.0063367e-38
-0.29003251 -0.22107852 0.29898053 1.0063367e-38
-0.28554058 -0.22514501 0.29447895 1.0063367e-38
-0.42380935 -0.21368788 0.29574969 1.0063367e-38
-0.419002 -0.2181088 0.29095376 1.0063367e-38
-0.29024422 -0.21307626 0.29674149 1.0063367e-38
-0.28690785 -0.21607143 0.29338998 1.0063367e-38
-0.42532381 -0.20507939 0.29499614 1.0063367e-38
-0.29277015 -0.20373248 0.29705814 1.0063367e-38
-0.28825277 -0.20686916 0.29223204 1.0063367e-38
-0.43164453 -0.19199014 0.29901844 1.0063367e-38
-0.42681032 -0.19579346 0.29399401 1.0063367e-38
-0.29403257 -0.19495015 0.29592583 1.0063367e-38
-0.28961891 -0.1956073 0.29045498 1.0063367e-38
-0.43181822 -0.18289591 0.29638791 1.0063367e-38
-0.42785609 -0.18762743 0.29277647 1.0063367e-38
-0.29530039 -0.18471989 0.29434597 1.0063367e-38
-0.43348271 -0.1735044 0.29558158 1.0063367e-38
-0.4287304 -0.17883822 0.29114276 1.0063367e-38
-0.30231023 -0.17009473 0.29877204 1.0063367e-38
-0.29728639 -0.17445874 0.29367998 1.0063367e-38
-0.43445405 -0.16563217 0.2943604 1.0063367e-38
-0.30084187 -0.16346972 0.29480398 1.0063367e-38
-0.29799694 -0.16417494 0.29136604 1.0063367e-38
-0.44054806 -0.15549734 0.29901817 1.0063367e-38
-0.43554646 -0.15543436 0.29300958 1.0063367e-38
-0.30348617 -0.15539108 0.2956695 1.0063367e-38
-0.29992169 -0.15550551 0.29112053 1.0063367e-38
-0.43640423 -0.14841598 0.29789332 1.0063367e-38
-0.42443031 -0.14852233 0.29500324 1.0063367e-38
-0.41462409 -0.14821063 0.2946085 1.0063367e-38
-0.40527093 -0.14775762 0.29483134 1.0063367e-38
-0.39409402 -0.14728259 0.29484117 1.0063367e-38
-0.38515043 -0.14674735 0.29544765 1.0063367e-38
-0.37565979 -0.14647645 0.29494703 1.0063367e-38
-0.36473393 -0.14601976 0.29492825 1.0063367e-38
-0.35460281 -0.14541453 0.29561067 1.0063367e-38
-0.3455331 -0.14515808 0.29512215 1.0063367e-38
-0.33483279 -0.14460021 0.29552966 1.0063367e-38
-0.32639807 -0.1448438 0.29321736 1.0063367e-38
-0.3154704 -0.14387378 0.29517567 1.0063367e-38
-0.3062709 -0.14594065 0.29526514 1.0063367e-38
-0.38271689 -0.40338549 0.30405295 1.0063367e-38
-0.37441656 -0.40448177 0.30583534 1.0063367e-38
-0.36625427 -0.40444908 0.30463326 1.0063367e-38
-0.35513633 -0.40399867 0.30456194 1.0063367e-38
-0.34356713 -0.40344864 0.30480108 1.0063367e-38
-0.33517322 -0.40315971 0.3045499 1.0063367e-38
-0.32520959 -0.40245882 0.30563188 1.0063367e-38
-0.31585622 -0.40228125 0.30479145 1.0063367e-38
-0.30540338 -0.40167579 0.3051869 1.0063367e-38
-0.29618576 -0.40066418 0.30750468 1.0063367e-38
-0.39004055 -0.39531773 0.30931687 1.0063367e-38
-0.38615096 -0.39499563 0.30421284 1.0063367e-38
-0.29461965 -0.39562735 0.30376267 1.0063367e-38
-0.28732511 -0.39237404 0.30910268 1.0063367e-38
-0.39121777 -0.38458413 0.30746254 1.0063367e-38
-0.38753113 -0.38587222 0.30312473 1.0063367e-38
-0.29282877 -0.38473982 0.30281162 1.0063367e-38
-0.28698289 -0.385557 0.30785888 1.0063367e-38
-0.39322945 -0.37415099 0.30677587 1.0063367e-38
-0.38962364 -0.37480769 0.30234376 1.0063367e-38
-0.29177678 -0.37525126 0.30155963 1.0063367e-38
-0.28538573 -0.37619787 0.30708978 1.0063367e-38
-0.39421093 -0.3646363 0.30505219 1.0063367e-38
-0.28556719 -0.3655479 0.30455071 1.0063367e-38
-0.27882218 -0.36194742 0.30935681 1.0063367e-38
-0.40029556 -0.3540408 0.30955338 1.0063367e-38
-0.39606959 -0.3550888 0.30444643 1.0063367e-38
-0.28370911 -0.35607442 0.30397218 1.0063367e-38
-0.27782106 -0.35565919 0.30877927 1.0063367e-38
-0.40127051 -0.34508881 0.307998 1.0063367e-38
-0.39681929 -0.3476488 0.30307576 1.0063367e-38
-0.28310147 -0.34620893 0.30226466 1.0063367e-38
-0.27578616 -0.34390783 0.3078365 1.0063367e-38
-0.40279901 -0.33458447 0.30666739 1.0063367e-38
-0.39859909 -0.33613959 0.30175292 1.0063367e-38
-0.28119281 -0.33500171 0.30133879 1.0063367e-38
-0.27470332 -0.33409432 0.30669212 1.0063367e-38
-0.40445167 -0.32387885 0.30543301 1.0063367e-38
-0.2807954 -0.328224 0.30014896 1.0063367e-38
-0.27502504 -0.32375541 0.30437863 1.0063367e-38
-0.40558887 -0.31377879 0.30372569 1.0063367e-38
-0.27437603 -0.31401357 0.305343 1.0063367e-38
-0.41163963 -0.30478477 0.30868578 1.0063367e-38
-0.40731525 -0.30685076 0.30377191 1.0063367e-38
-0.27486226 -0.30520123 0.30546358 1.0063367e-38
-0.41290769 -0.29470718 0.30715391 1.0063367e-38
-0.40847301 -0.29532817 0.30164477 1.0063367e-38
-0.28142816 -0.29014039 0.30958652 1.0063367e-38
-0.27586398 -0.29605183 0.30404598 1.0063367e-38
-0.41352457 -0.28440776 0.30471492 1.0063367e-38
-0.281643 -0.28507569 0.30827358 1.0063367e-38
-0.27814743 -0.28511047 0.30378836 1.0063367e-38
-0.42006505 -0.27381581 0.30980337 1.0063367e-38
-0.41527081 -0.27411029 0.3037293 1.0063367e-38
-0.28296882 -0.27318451 0.30624709 1.0063367e-38
-0.27885219 -0.27603903 0.30184802 1.0063367e-38
-0.42167214 -0.26390195 0.3087593 1.0063367e-38
-0.41691309 -0.26626152 0.30337846 1.0063367e-38
-0.28402919 -0.26450729 0.30488783 1.0063367e-38
-0.42288503 -0.25408143 0.30723745 1.0063367e-38
-0.41773257 -0.25770301 0.30174661 1.0063367e-38
-0.29050833 -0.25120208 0.30904597 1.0063367e-38
-0.2857998 -0.25539756 0.30430636 1.0063367e-38
-0.42418718 -0.24435662 0.30586034 1.0063367e-38
-0.41967973 -0.24935007 0.30162984 1.0063367e-38
-0.29246044 -0.24162467 0.30855125 1.0063367e-38
-0.28752404 -0.24583268 0.3035225 1.0063367e-38
-0.42609763 -0.2343996 0.30519295 1.0063367e-38
-0.29235816 -0.23360631 0.30590332 1.0063367e-38
-0.28937376 -0.23371771 0.3020997 1.0063367e-38
-0.43103397 -0.22417811 0.30833468 1.0063367e-38
-0.4263894 -0.22651769 0.30309469 1.0063367e-38
-0.29473954 -0.22540353 0.30639219 1.0063367e-38
-0.28933996 -0.22800352 0.30026293 1.0063367e-38
-0.43268237 -0.21301238 0.30695093 1.0063367e-38
-0.42787015 -0.21853571 0.30249441 1.0063367e-38
-0.2962938 -0.21557435 0.30530667 1.0063367e-38
-0.43321276 -0.20477957 0.30504948 1.0063367e-38
-0.42840251 -0.20931463 0.30028528 1.0063367e-38
-0.29751021 -0.20541956 0.30368441 1.0063367e-38
-0.4356266 -0.19574544 0.30531913 1.0063367e-38
-0.3020916 -0.19550967 0.30646703 1.0063367e-38
-0.29811358 -0.19693486 0.30179781 1.0063367e-38
-0.44099426 -0.18294035 0.30820477 1.0063367e-38
-0.4372409 -0.18531626 0.30412263 1.0063367e-38
-0.30379844 -0.18475792 0.30528784 1.0063367e-38
-0.29890323 -0.18807703 0.30003375 1.0063367e-38
-0.4428874 -0.17519066 0.30820766 1.0063367e-38
-0.43842924 -0.17453127 0.30226642 1.0063367e-38
-0.30565038 -0.17535976 0.30472025 1.0063367e-38
-0.44419298 -0.16453925 0.30654407 1.0063367e-38
-0.4397133 -0.16562155 0.30112189 1.0063367e-38
-0.31096619 -0.16495204 0.30829093 1.0063367e-38
-0.30665678 -0.16567077 0.30297408 1.0063367e-38
-0.44597021 -0.15358298 0.30539152 1.0063367e-38
-0.31297874 -0.15559696 0.30794352 1.0063367e-38
-0.30874079 -0.15591563 0.30259281 1.0063367e-38
-0.44349059 -0.1468184 0.30545789 1.0063367e-38
-0.43557978 -0.14626515 0.30551806 1.0063367e-38
-0.4255172 -0.1457845 0.30573121 1.0063367e-38
-0.41426772 -0.14552727 0.30489093 1.0063367e-38
-0.40539777 -0.14497206 0.30558702 1.0063367e-38
-0.3947984 -0.14470962 0.30487177 1.0063367e-38
-0.38459632 -0.14450975 0.30398077 1.0063367e-38
-0.37442431 -0.14381595 0.30499831 1.0063367e-38
-0.36539966 -0.14368922 0.30401731 1.0063367e-38
-0.35541591 -0.14301121 0.30500424 1.0063367e-38
-0.34474868 -0.14242427 0.30552906 1.0063367e-38
-0.33544868 -0.14217106 0.30499053 1.0063367e-38
-0.32536536 -0.14186585 0.30452505 1.0063367e-38
-0.31503719 -0.14357102 0.304923 1.0063367e-38
-0.39382562 -0.40154964 0.31805843 1.0063367e-38
-0.38498664 -0.40256673 0.31444159 1.0063367e-38
-0.3758308 -0.40201634 0.31556839 1.0063367e-38
-0.36534339 -0.40178916 0.31474337 1.0063367e-38
-0.35598135 -0.40139836 0.31472754 1.0063367e-38
-0.34516674 -0.40130615 0.31332323 1.0063367e-38
-0.33507052 -0.40096051 0.31301448 1.0063367e-38
-0.32631096 -0.40086776 0.31194761 1.0063367e-38
-0.3166016 -0.40068212 0.31107613 1.0063367e-38
-0.3070783 -0.40037256 0.31070888 1.0063367e-38
-0.39461067 -0.39527026 0.31518039 1.0063367e-38
-0.35038525 -0.39997315 0.31930858 1.0063367e-38
-0.34391475 -0.39974606 0.31913006 1.0063367e-38
-0.33463997 -0.39932901 0.31923071 1.0063367e-38
-0.32441282 -0.39942089 0.31721193 1.0063367e-38
-0.31447715 -0.39896557 0.31734052 1.0063367e-38
-0.30424246 -0.39887756 0.31600738 1.0063367e-38
-0.29422602 -0.39881718 0.31460816 1.0063367e-38
-0.28460738 -0.39612243 0.31401116 1.0063367e-38
-0.27775091 -0.39556122 0.31797385 1.0063367e-38
-0.39655265 -0.38426661 0.31422475 1.0063367e-38
-0.28243229 -0.38416457 0.31133455 1.0063367e-38
-0.27705619 -0.38746652 0.31655049 1.0063367e-38
-0.40121198 -0.37533987 0.31741607 1.0063367e-38
-0.39766186 -0.37490654 0.31271383 1.0063367e-38
-0.27504253 -0.37574092 0.31567299 1.0063367e-38
-0.40332517 -0.36482829 0.31683519 1.0063367e-38
-0.39905536 -0.36671245 0.3119348 1.0063367e-38
-0.274041 -0.36582166 0.31436545 1.0063367e-38
-0.4039754 -0.35511294 0.31462276 1.0063367e-38
-0.27275845 -0.35477436 0.31396174 1.0063367e-38
-0.40619653 -0.34452897 0.31415817 1.0063367e-38
-0.27289945 -0.34451488 0.31419155 1.0063367e-38
-0.41136321 -0.33560157 0.31800163 1.0063367e-38
-0.40884066 -0.33634275 0.31498986 1.0063367e-38
-0.27564806 -0.33282477 0.31554741 1.0063367e-38
-0.41258013 -0.32544538 0.31637955 1.0063367e-38
-0.40757367 -0.32983595 0.31131834 1.0063367e-38
-0.28166926 -0.32073364 0.31949759 1.0063367e-38
-0.27715909 -0.32581323 0.31529054 1.0063367e-38
-0.41361299 -0.31481668 0.31437239 1.0063367e-38
-0.28307864 -0.31252402 0.31873414 1.0063367e-38
-0.27820337 -0.31631762 0.31365377 1.0063367e-38
-0.42037228 -0.30314457 0.31940299 1.0063367e-38
-0.41531384 -0.30514911 0.31352603 1.0063367e-38
-0.28249052 -0.30500835 0.31561902 1.0063367e-38
-0.27778858 -0.30881369 0.31076539 1.0063367e-38
-0.42202675 -0.29430327 0.31875628 1.0063367e-38
-0.41769198 -0.29513854 0.31344312 1.0063367e-38
-0.28422192 -0.29507494 0.31472868 1.0063367e-38
-0.42303547 -0.28484672 0.31708592 1.0063367e-38
-0.41945544 -0.28663939 0.31304401 1.0063367e-38
-0.2907148 -0.28144765 0.31880331 1.0063367e-38
-0.2855123 -0.28478801 0.31316012 1.0063367e-38
-0.42520326 -0.27399233 0.31646776 1.0063367e-38
-0.41935694 -0.27934104 0.31062669 1.0063367e-38
-0.29240319 -0.27312958 0.31836462 1.0063367e-38
-0.28824162 -0.27509451 0.31362855 1.0063367e-38
-0.42615071 -0.26513848 0.31490779 1.0063367e-38
-0.29349527 -0.26321518 0.31665796 1.0063367e-38
-0.28859401 -0.26694959 0.31152579 1.0063367e-38
-0.43111318 -0.25455254 0.31796855 1.0063367e-38
-0.42646149 -0.25603038 0.31244919 1.0063367e-38
-0.29496545 -0.25367066 0.31555361 1.0063367e-38
-0.28971088 -0.25776491 0.31007987 1.0063367e-38
-0.43232381 -0.24528444 0.31661716 1.0063367e-38
-0.42882711 -0.24747351 0.31280673 1.0063367e-38
-0.29623979 -0.24568611 0.31468701 1.0063367e-38
-0.43472046 -0.23396447 0.31614748 1.0063367e-38
-0.42904046 -0.23990859 0.31070715 1.0063367e-38
-0.3014788 -0.23313475 0.3174867 1.0063367e-38
-0.29723582 -0.2357351 0.31284535 1.0063367e-38
-0.43526673 -0.22544284 0.31417581 1.0063367e-38
-0.30250683 -0.22364303 0.31583023 1.0063367e-38
-0.29833916 -0.22484349 0.31084651 1.0063367e-38
-0.44115907 -0.21660003 0.31897944 1.0063367e-38
-0.43667418 -0.21642676 0.31315675 1.0063367e-38
-0.30368847 -0.21411671 0.31436026 1.0063367e-38
-0.44196519 -0.20603214 0.31670004 1.0063367e-38
-0.43851578 -0.20476621 0.31186625 1.0063367e-38
-0.30558825 -0.20525992 0.31402394 1.0063367e-38
-0.4434289 -0.19396648 0.31479633 1.0063367e-38
-0.31141484 -0.1951081 0.31833151 1.0063367e-38
-0.30785942 -0.19558319 0.31390786 1.0063367e-38
-0.45018414 -0.18067686 0.31931442 1.0063367e-38
-0.44464275 -0.18632334 0.31395912 1.0063367e-38
-0.31286448 -0.18362913 0.31659392 1.0063367e-38
-0.30840927 -0.18745914 0.31206554 1.0063367e-38
-0.45162886 -0.17146057 0.31828043 1.0063367e-38
-0.44770226 -0.17448363 0.31417879 1.0063367e-38
-0.31361708 -0.17467897 0.31475314 1.0063367e-38
-0.45209223 -0.16460338 0.31672451 1.0063367e-38
-0.44852042 -0.16412885 0.3119815 1.0063367e-38
-0.31613857 -0.16446006 0.31478941 1.0063367e-38
-0.45321804 -0.15508732 0.31518605 1.0063367e-38
-0.44918394 -0.15696236 0.3105858 1.0063367e-38
-0.320503 -0.15568566 0.31764925 1.0063367e-38
-0.31707215 -0.15454426 0.31287822 1.0063367e-38
-0.45473793 -0.14576454 0.31551719 1.0063367e-38
-0.44446501 -0.14424416 0.31475383 1.0063367e-38
-0.43391934 -0.14367683 0.31522247 1.0063367e-38
-0.42484456 -0.14322694 0.3154777 1.0063367e-38
-0.41523981 -0.14321399 0.31396285 1.0063367e-38
-0.40477976 -0.14262155 0.31454334 1.0063367e-38
-0.39429733 -0.14195338 0.31541163 1.0063367e-38
-0.38444555 -0.14179365 0.31442326 1.0063367e-38
-0.37471589 -0.1413703 0.31447029 1.0063367e-38
-0.3654331 -0.14148003 0.31253564 1.0063367e-38
-0.3559159 -0.14089237 0.31325057 1.0063367e-38
-0.34523189 -0.14079264 0.3118951 1.0063367e-38
-0.3364327 -0.14039323 0.31200159 1.0063367e-38
-0.32353479 -0.14341965 0.31546089 1.0063367e-38
-0.31910968 -0.14515552 0.31238434 1.0063367e-38
-0.36823308 -0.1399703 0.31881022 1.0063367e-38
-0.35504991 -0.13955641 0.31825766 1.0063367e-38
-0.34573799 -0.13923587 0.31797686 1.0063367e-38
-0.33437461 -0.13894796 0.31723654 1.0063367e-38
-0.32659349 -0.13920636 0.31557459 1.0063367e-38
-0.40102968 -0.40025264 0.32504094 1.0063367e-38
-0.39570674 -0.40074599 0.32357156 1.0063367e-38
-0.38685077 -0.40060478 0.32279786 1.0063367e-38
-0.37302607 -0.40032709 0.321623 1.0063367e-38
-0.40341383 -0.39532736 0.32652158 1.0063367e-38
-0.39685255 -0.3978956 0.32510549 1.0063367e-38
-0.38362655 -0.39897466 0.328556 1.0063367e-38
-0.37411246 -0.39913601 0.32638729 1.0063367e-38
-0.36446846 -0.39890462 0.32571721 1.0063367e-38
-0.35396281 -0.39879599 0.32442614 1.0063367e-38
-0.34385583 -0.39844975 0.32411399 1.0063367e-38
-0.33519769 -0.39780581 0.32518733 1.0063367e-38
-0.32507181 -0.39756805 0.3244507 1.0063367e-38
-0.31525007 -0.39679909 0.32581171 1.0063367e-38
-0.30529794 -0.39660287 0.32494876 1.0063367e-38
-0.29535136 -0.39626157 0.32464749 1.0063367e-38
-0.2840994 -0.39571378 0.32492962 1.0063367e-38
-0.27378497 -0.39446893 0.32533166 1.0063367e-38
-0.26942891 -0.39252502 0.32506645 1.0063367e-38
-0.4043164 -0.38514248 0.32448581 1.0063367e-38
-0.27158648 -0.38521838 0.32383204 1.0063367e-38
-0.26913971 -0.38613832 0.32344472 1.0063367e-38
-0.40738565 -0.3743957 0.32506058 1.0063367e-38
-0.27367389 -0.37468466 0.32614475 1.0063367e-38
-0.26968479 -0.37878343 0.32225341 1.0063367e-38
-0.41206998 -0.36704078 0.32877737 1.0063367e-38
-0.40839672 -0.36436623 0.32321334 1.0063367e-38
-0.27496153 -0.36427632 0.32453462 1.0063367e-38
-0.41267288 -0.35632831 0.32619071 1.0063367e-38
-0.40859091 -0.35334694 0.32000488 1.0063367e-38
-0.28185481 -0.35203075 0.3295579 1.0063367e-38
-0.27720612 -0.35623804 0.32489908 1.0063367e-38
-0.41405115 -0.34558249 0.32459101 1.0063367e-38
-0.28144157 -0.34303254 0.32620266 1.0063367e-38
-0.27759743 -0.3483063 0.32291323 1.0063367e-38
-0.42038777 -0.33420348 0.32916999 1.0063367e-38
-0.41601548 -0.33456668 0.32366046 1.0063367e-38
-0.28354651 -0.33361793 0.32595563 1.0063367e-38
-0.27833658 -0.33914459 0.32098866 1.0063367e-38
-0.42204517 -0.32342076 0.32791793 1.0063367e-38
-0.41761035 -0.32406899 0.32241726 1.0063367e-38
-0.28491545 -0.32448447 0.32485014 1.0063367e-38
-0.42311597 -0.31569457 0.3268705 1.0063367e-38
-0.41959724 -0.3149969 0.32212579 1.0063367e-38
-0.29101932 -0.31250814 0.32894272 1.0063367e-38
-0.2864331 -0.31515449 0.32387424 1.0063367e-38
-0.42479631 -0.3057892 0.32592317 1.0063367e-38
-0.29260194 -0.30308527 0.32802123 1.0063367e-38
-0.28840494 -0.3058387 0.32348692 1.0063367e-38
-0.42658815 -0.29569221 0.32505918 1.0063367e-38
-0.29380605 -0.29318818 0.32646406 1.0063367e-38
-0.28870299 -0.29679841 0.32103321 1.0063367e-38
-0.43128756 -0.28188869 0.3267718 1.0063367e-38
-0.42798167 -0.28660354 0.3239992 1.0063367e-38
-0.29396492 -0.28503916 0.32411104 1.0063367e-38
-0.43311214 -0.27499837 0.32695636 1.0063367e-38
-0.42856365 -0.27658221 0.32160285 1.0063367e-38
-0.30007935 -0.27249235 0.32803816 1.0063367e-38
-0.29635844 -0.27718273 0.32472408 1.0063367e-38
-0.4346602 -0.26508284 0.32583568 1.0063367e-38
-0.301817 -0.26554734 0.32809359 1.0063367e-38
-0.29747793 -0.26605231 0.32267094 1.0063367e-38
-0.44125265 -0.25116095 0.32994586 1.0063367e-38
-0.43570542 -0.25597847 0.3243227 1.0063367e-38
-0.30295119 -0.25355318 0.32578841 1.0063367e-38
-0.2990109 -0.2563501 0.32159811 1.0063367e-38
-0.44118929 -0.2444178 0.327748 1.0063367e-38
-0.43777883 -0.24561557 0.32373738 1.0063367e-38
-0.30441424 -0.24491407 0.32495904 1.0063367e-38
-0.44237447 -0.23326772 0.3257733 1.0063367e-38
-0.43837151 -0.23592886 0.32145977 1.0063367e-38
-0.30604944 -0.23462062 0.32383168 1.0063367e-38
-0.44376439 -0.22434893 0.32476217 1.0063367e-38
-0.31192854 -0.2250244 0.32838148 1.0063367e-38
-0.30734599 -0.22536127 0.32259318 1.0063367e-38
-0.44659668 -0.21447729 0.32530722 1.0063367e-38
-0.3124744 -0.21530996 0.32603478 1.0063367e-38
-0.30765104 -0.21620443 0.32011175 1.0063367e-38
-0.45175037 -0.20253861 0.32818931 1.0063367e-38
-0.44685102 -0.20575786 0.32289803 1.0063367e-38
-0.31420118 -0.20564322 0.32522207 1.0063367e-38
-0.45200014 -0.19338855 0.32563916 1.0063367e-38
-0.44795507 -0.19615313 0.32130405 1.0063367e-38
-0.32069269 -0.19013301 0.32870442 1.0063367e-38
-0.31576282 -0.19508645 0.32391781 1.0063367e-38
-0.45436805 -0.18561906 0.32624665 1.0063367e-38
-0.4495292 -0.18736786 0.32057172 1.0063367e-38
-0.32116082 -0.18264395 0.32695591 1.0063367e-38
-0.31761682 -0.18532437 0.32323906 1.0063367e-38
-0.45609736 -0.17566729 0.3253479 1.0063367e-38
-0.32284957 -0.17563027 0.32692662 1.0063367e-38
-0.31969988 -0.17301036 0.32205343 1.0063367e-38
-0.46185163 -0.1607105 0.32953459 1.0063367e-38
-0.45757449 -0.1650638 0.32392025 1.0063367e-38
-0.32397914 -0.16507667 0.32506752 1.0063367e-38
-0.31966102 -0.1666781 0.32001603 1.0063367e-38
-0.46177781 -0.15328918 0.326989 1.0063367e-38
-0.45802423 -0.15548867 0.32149392 1.0063367e-38
-0.33002368 -0.15023126 0.32818335 1.0063367e-38
-0.32582828 -0.15516169 0.32433435 1.0063367e-38
-0.46217066 -0.14533257 0.32537168 1.0063367e-38
-0.45451003 -0.14227372 0.32398203 1.0063367e-38
-0.44487822 -0.1414212 0.32569927 1.0063367e-38
-0.4351196 -0.14133543 0.32444116 1.0063367e-38
-0.42591473 -0.14105804 0.32401037 1.0063367e-38
-0.41584596 -0.14107317 0.32231185 1.0063367e-38
-0.40463361 -0.14046662 0.32282346 1.0063367e-38
-0.39549491 -0.14040105 0.32158864 1.0063367e-38
-0.38847756 -0.14004761 0.32180852 1.0063367e-38
-0.33210647 -0.14566746 0.32942998 1.0063367e-38
-0.32759377 -0.14506322 0.32343599 1.0063367e-38
-0.43127605 -0.13992015 0.32926929 1.0063367e-38
-0.4155719 -0.1395838 0.3280066 1.0063367e-38
-0.40463555 -0.13894227 0.32869792 1.0063367e-38
-0.39511073 -0.13911058 0.32649907 1.0063367e-38
-0.38504252 -0.13865942 0.32659924 1.0063367e-38
-0.3752926 -0.13889146 0.32411763 1.0063367e-38
-0.36443084 -0.13833609 0.32448888 1.0063367e-38
-0.35554484 -0.13769469 0.32551321 1.0063367e-38
-0.34479478 -0.13738039 0.32497418 1.0063367e-38
-0.33458424 -0.13746184 0.32528311 1.0063367e-38
-0.32822526 -0.13984296 0.32257283 1.0063367e-38
-0.41148055 -0.39536649 0.33693305 1.0063367e-38
-0.40523082 -0.39758444 0.33393046 1.0063367e-38
-0.39352 -0.3977775 0.33477777 1.0063367e-38
-0.38454065 -0.39706448 0.33606648 1.0063367e-38
-0.37483263 -0.39706168 0.3344979 1.0063367e-38
-0.36432225 -0.39653593 0.33481666 1.0063367e-38
-0.35478976 -0.39621896 0.33448663 1.0063367e-38
-0.34553504 -0.39593631 0.33406901 1.0063367e-38
-0.33504307 -0.3951568 0.33536467 1.0063367e-38
-0.3252275 -0.39493501 0.33462372 1.0063367e-38
-0.31539246 -0.39443573 0.33494925 1.0063367e-38
-0.30484301 -0.39410961 0.33449051 1.0063367e-38
-0.29447359 -0.39333177 0.33580273 1.0063367e-38
-0.28453782 -0.39307389 0.3351776 1.0063367e-38
-0.27675179 -0.39216289 0.33378971 1.0063367e-38
-0.41285321 -0.38516751 0.33547387 1.0063367e-38
-0.40890551 -0.38424081 0.33010548 1.0063367e-38
-0.28206396 -0.38249731 0.33938843 1.0063367e-38
-0.27744257 -0.38379022 0.33384991 1.0063367e-38
-0.41506657 -0.37544274 0.33526874 1.0063367e-38
-0.28232831 -0.37430519 0.33715755 1.0063367e-38
-0.27780068 -0.37678158 0.332111 1.0063367e-38
-0.42076859 -0.36580738 0.33957881 1.0063367e-38
-0.4163495 -0.36424527 0.33340451 1.0063367e-38
-0.28328037 -0.36508918 0.33548981 1.0063367e-38
-0.27871686 -0.36945599 0.33099037 1.0063367e-38
-0.42245919 -0.35390967 0.3380191 1.0063367e-38
-0.4179332 -0.35469279 0.33244348 1.0063367e-38
-0.28514138 -0.35520643 0.33478197 1.0063367e-38
-0.42222118 -0.34371567 0.33451366 1.0063367e-38
-0.4198207 -0.34732938 0.33256018 1.0063367e-38
-0.2913422 -0.3427673 0.33885407 1.0063367e-38
-0.28636816 -0.34472322 0.33307001 1.0063367e-38
-0.42504907 -0.33605075 0.33574522 1.0063367e-38
-0.29226592 -0.33392242 0.33726656 1.0063367e-38
-0.28853709 -0.33584958 0.33307511 1.0063367e-38
-0.43061411 -0.32353342 0.33897474 1.0063367e-38
-0.42648309 -0.32485569 0.33407634 1.0063367e-38
-0.29353175 -0.32367313 0.33567822 1.0063367e-38
-0.4318563 -0.31248292 0.33710468 1.0063367e-38
-0.42786938 -0.31575125 0.33300215 1.0063367e-38
-0.29427683 -0.31533337 0.33401933 1.0063367e-38
-0.43322176 -0.30448228 0.33635005 1.0063367e-38
-0.42934138 -0.30430683 0.33130386 1.0063367e-38
-0.29744229 -0.30538112 0.33496758 1.0063367e-38
-0.43474355 -0.29559371 0.33551797 1.0063367e-38
-0.30148625 -0.29443422 0.33673376 1.0063367e-38
-0.29788673 -0.29454631 0.33213902 1.0063367e-38
-0.44137752 -0.28112596 0.33951071 1.0063367e-38
-0.43630132 -0.28567058 0.33440754 1.0063367e-38
-0.3036207 -0.2857025 0.33673888 1.0063367e-38
-0.29902798 -0.2864787 0.33107513 1.0063367e-38
-0.4410302 -0.2731384 0.33655718 1.0063367e-38
-0.43686891 -0.27786192 0.33268714 1.0063367e-38
-0.3057901 -0.27484763 0.33612269 1.0063367e-38
-0.44279104 -0.2636936 0.33585802 1.0063367e-38
-0.43778715 -0.26900953 0.33109021 1.0063367e-38
-0.30698395 -0.26422992 0.33432603 1.0063367e-38
-0.44484279 -0.2549417 0.33575031 1.0063367e-38
-0.3120133 -0.25520283 0.33796209 1.0063367e-38
-0.30812469 -0.25379214 0.33251762 1.0063367e-38
-0.45017737 -0.24214119 0.33859432 1.0063367e-38
-0.44536576 -0.24368057 0.33288872 1.0063367e-38
-0.31327978 -0.24504542 0.33640334 1.0063367e-38
-0.30851343 -0.24642915 0.33070672 1.0063367e-38
-0.45237738 -0.23281093 0.338496 1.0063367e-38
-0.44830799 -0.23591018 0.33423436 1.0063367e-38
-0.31465209 -0.23550078 0.33517286 1.0063367e-38
-0.45238429 -0.22426896 0.3358241 1.0063367e-38
-0.44791034 -0.22683382 0.33087441 1.0063367e-38
-0.3212564 -0.22028024 0.33889127 1.0063367e-38
-0.31603739 -0.22466867 0.33355522 1.0063367e-38
-0.45489642 -0.21592742 0.33643764 1.0063367e-38
-0.4494122 -0.217994 0.33003205 1.0063367e-38
-0.32212585 -0.21483572 0.33830076 1.0063367e-38
-0.31809923 -0.21429053 0.3329502 1.0063367e-38
-0.45622009 -0.20470814 0.33471119 1.0063367e-38
-0.32312614 -0.20613712 0.33685708 1.0063367e-38
-0.31966317 -0.2062442 0.3324368 1.0063367e-38
-0.46088535 -0.19393401 0.33734205 1.0063367e-38
-0.45741957 -0.19501093 0.33318222 1.0063367e-38
-0.32378066 -0.19565082 0.33440766 1.0063367e-38
-0.46092668 -0.18532541 0.33604446 1.0063367e-38
-0.45909294 -0.1836741 0.33607292 1.0063367e-38
-0.32671222 -0.18489188 0.33480144 1.0063367e-38
-0.46192282 -0.17393145 0.33313715 1.0063367e-38
-0.4572804 -0.17365591 0.33801579 1.0063367e-38
-0.33174825 -0.17366259 0.33775494 1.0063367e-38
-0.32715544 -0.17461085 0.33214498 1.0063367e-38
-0.46181986 -0.16573198 0.33080009 1.0063367e-38
-0.45717844 -0.16493765 0.33614492 1.0063367e-38
-0.33231604 -0.1657293 0.33599555 1.0063367e-38
-0.32898787 -0.1631956 0.33091956 1.0063367e-38
-0.46188885 -0.15677409 0.33025497 1.0063367e-38
-0.45506963 -0.15491807 0.33565229 1.0063367e-38
-0.33415571 -0.15480559 0.3349337 1.0063367e-38
-0.45415825 -0.14522994 0.3339527 1.0063367e-38
-0.44940844 -0.14143686 0.33733928 1.0063367e-38
-0.33645386 -0.14531927 0.33491254 1.0063367e-38
-0.44457647 -0.13923416 0.33421189 1.0063367e-38
-0.43373781 -0.13829403 0.3359364 1.0063367e-38
-0.42396235 -0.13811032 0.33505216 1.0063367e-38
-0.41505083 -0.13752301 0.33586368 1.0063367e-38
-0.40558568 -0.1372038 0.33555239 1.0063367e-38
-0.39496437 -0.13688792 0.3350409 1.0063367e-38
-0.38453183 -0.13611735 0.33631268 1.0063367e-38
-0.37426558 -0.13578916 0.33590612 1.0063367e-38
-0.3651773 -0.13589758 0.33400866 1.0063367e-38
-0.35487181 -0.13513131 0.33528277 1.0063367e-38
-0.34528023 -0.13533495 0.33501706 1.0063367e-38
-0.33784336 -0.13629717 0.33283159 1.0063367e-38
-0.41689563 -0.39438987 0.34499738 1.0063367e-38
-0.40562311 -0.39581877 0.34429547 1.0063367e-38
-0.39474148 -0.39522263 0.34482417 1.0063367e-38
-0.38508862 -0.39474887 0.34508035 1.0063367e-38
-0.37519071 -0.39420456 0.3455669 1.0063367e-38
-0.36529192 -0.39416647 0.34410065 1.0063367e-38
-0.35363996 -0.39348504 0.34482822 1.0063367e-38
-0.3438606 -0.39290845 0.34546041 1.0063367e-38
-0.33493754 -0.39252588 0.34548077 1.0063367e-38
-0.32583049 -0.39235428 0.34466311 1.0063367e-38
-0.31538099 -0.39163941 0.3457225 1.0063367e-38
-0.30559373 -0.39177388 0.34361833 1.0063367e-38
-0.29595947 -0.3908121 0.34575021 1.0063367e-38
-0.2852754 -0.39068094 0.34301436 1.0063367e-38
-0.42251629 -0.38472915 0.34776521 1.0063367e-38
-0.41814432 -0.38577852 0.34247133 1.0063367e-38
-0.28674313 -0.38460258 0.34602624 1.0063367e-38
-0.42202774 -0.37539688 0.34420794 1.0063367e-38
-0.29178658 -0.37318718 0.34897208 1.0063367e-38
-0.28750321 -0.37581375 0.34428713 1.0063367e-38
-0.42507848 -0.36529171 0.34496021 1.0063367e-38
-0.29312378 -0.3647944 0.34805822 1.0063367e-38
-0.28856477 -0.36319301 0.34169173 1.0063367e-38
-0.43048126 -0.35624421 0.3490696 1.0063367e-38
-0.42719734 -0.35615158 0.34481692 1.0063367e-38
-0.29374191 -0.35541368 0.34590933 1.0063367e-38
-0.43150675 -0.34477788 0.34679008 1.0063367e-38
-0.42718601 -0.34609574 0.34164628 1.0063367e-38
-0.29541048 -0.34515366 0.34483564 1.0063367e-38
-0.43386942 -0.33370972 0.3463555 1.0063367e-38
-0.42938638 -0.33507663 0.34101829 1.0063367e-38
-0.30048615 -0.33360779 0.34774089 1.0063367e-38
-0.29664388 -0.33716741 0.34391591 1.0063367e-38
-0.43473503 -0.32434765 0.34453079 1.0063367e-38
-0.30231503 -0.32482439 0.34733677 1.0063367e-38
-0.29802108 -0.32630286 0.3422778 1.0063367e-38
-0.44190568 -0.31143388 0.34970123 1.0063367e-38
-0.43700689 -0.31644604 0.34497321 1.0063367e-38
-0.30407372 -0.31351241 0.34604889 1.0063367e-38
-0.29975033 -0.31709588 0.34161258 1.0063367e-38
-0.44116586 -0.30364984 0.34630695 1.0063367e-38
-0.43767303 -0.30816969 0.34323272 1.0063367e-38
-0.30610448 -0.3045544 0.3458496 1.0063367e-38
-0.44296029 -0.29456323 0.34576339 1.0063367e-38
-0.437702 -0.29896027 0.34037971 1.0063367e-38
-0.30630955 -0.2955443 0.34328589 1.0063367e-38
-0.44521752 -0.28418437 0.34540954 1.0063367e-38
-0.31197265 -0.28419542 0.34700838 1.0063367e-38
-0.30830494 -0.28425562 0.34230983 1.0063367e-38
-0.45086858 -0.272457 0.34899783 1.0063367e-38
-0.4459663 -0.27433911 0.34328303 1.0063367e-38
-0.31312168 -0.27431226 0.34538478 1.0063367e-38
-0.45241347 -0.26356527 0.34819439 1.0063367e-38
-0.44821593 -0.26633334 0.34366417 1.0063367e-38
-0.31508172 -0.26591414 0.34527034 1.0063367e-38
-0.45287046 -0.25393569 0.34575996 1.0063367e-38
-0.32074642 -0.25463909 0.34901804 1.0063367e-38
-0.31639355 -0.25548363 0.34368429 1.0063367e-38
-0.45474863 -0.24331677 0.34484312 1.0063367e-38
-0.44970554 -0.24885169 0.34009367 1.0063367e-38
-0.32178628 -0.24423888 0.34709191 1.0063367e-38
-0.31855392 -0.24453405 0.34302685 1.0063367e-38
-0.45730022 -0.23545936 0.34581238 1.0063367e-38
-0.323567 -0.2365025 0.34695423 1.0063367e-38
-0.31960458 -0.23434821 0.34118164 1.0063367e-38
-0.4600226 -0.22891165 0.34812868 1.0063367e-38
-0.45752755 -0.22481585 0.34580332 1.0063367e-38
-0.32427195 -0.22606152 0.34458429 1.0063367e-38
-0.46018425 -0.21530071 0.3442817 1.0063367e-38
-0.45766988 -0.21531685 0.34607118 1.0063367e-38
-0.33032537 -0.21466824 0.34879404 1.0063367e-38
-0.32656619 -0.21468686 0.34396502 1.0063367e-38
-0.46032473 -0.20462927 0.34221333 1.0063367e-38
-0.45495725 -0.20493625 0.34639153 1.0063367e-38
-0.33209383 -0.20381182 0.34766126 1.0063367e-38
-0.32771742 -0.20519403 0.34246621 1.0063367e-38
-0.46000904 -0.19900656 0.34115458 1.0063367e-38
-0.45494834 -0.19410311 0.34454328 1.0063367e-38
-0.33314323 -0.19423774 0.34600639 1.0063367e-38
-0.32905829 -0.19486859 0.34094995 1.0063367e-38
-0.45371503 -0.18603458 0.34375972 1.0063367e-38
-0.44780278 -0.18632448 0.34874493 1.0063367e-38
-0.33451968 -0.18453017 0.3447302 1.0063367e-38
-0.4539226 -0.17666978 0.3414863 1.0063367e-38
-0.44683337 -0.17466097 0.34693527 1.0063367e-38
-0.34071514 -0.17162672 0.34864956 1.0063367e-38
-0.33674347 -0.17411865 0.34432307 1.0063367e-38
-0.45119017 -0.16628432 0.34143057 1.0063367e-38
-0.44579318 -0.16539137 0.34572157 1.0063367e-38
-0.43973905 -0.161072 0.34979093 1.0063367e-38
-0.3418127 -0.16427287 0.34775355 1.0063367e-38
-0.33820778 -0.16487744 0.34330639 1.0063367e-38
-0.44614828 -0.1556886 0.34324932 1.0063367e-38
-0.43915725 -0.15613997 0.34916851 1.0063367e-38
-0.342067 -0.15470734 0.34507871 1.0063367e-38
-0.33825669 -0.15494126 0.34025109 1.0063367e-38
-0.44431782 -0.14464474 0.34229511 1.0063367e-38
-0.43871671 -0.14404893 0.34682283 1.0063367e-38
-0.34444693 -0.14582767 0.34535313 1.0063367e-38
-0.44054365 -0.13732603 0.34171551 1.0063367e-38
-0.4340817 -0.13660219 0.3455483 1.0063367e-38
-0.42416105 -0.13542101 0.34544837 1.0063367e-38
-0.41362381 -0.13505533 0.34514138 1.0063367e-38
-0.40426517 -0.1345927 0.3454009 1.0063367e-38
-0.39419597 -0.13419348 0.34530002 1.0063367e-38
-0.38521856 -0.1338325 0.34522957 1.0063367e-38
-0.37525332 -0.13329729 0.34566936 1.0063367e-38
-0.36405167 -0.13304761 0.34480757 1.0063367e-38
-0.35433441 -0.1329219 0.3455711 1.0063367e-38
-0.34630448 -0.13594225 0.34362376 1.0063367e-38
-0.42291397 -0.39292789 0.35325599 1.0063367e-38
-0.41575074 -0.39373168 0.35398695 1.0063367e-38
-0.40513557 -0.39296776 0.3551994 1.0063367e-38
-0.39570066 -0.39264187 0.35492086 1.0063367e-38
-0.38536289 -0.39234382 0.35439417 1.0063367e-38
-0.37432885 -0.39174616 0.35490128 1.0063367e-38
-0.36497247 -0.39129579 0.35510665 1.0063367e-38
-0.35554084 -0.39084959 0.3552891 1.0063367e-38
-0.34604093 -0.3910726 0.35288769 1.0063367e-38
-0.33483261 -0.39055532 0.3530553 1.0063367e-38
-0.32644221 -0.39074826 0.35094446 1.0063367e-38
-0.43069622 -0.38634706 0.35879427 1.0063367e-38
-0.42781669 -0.38673556 0.35521263 1.0063367e-38
-0.34370181 -0.38970345 0.35778245 1.0063367e-38
-0.33536571 -0.38952923 0.35709614 1.0063367e-38
-0.32520461 -0.38904977 0.3572911 1.0063367e-38
-0.31597912 -0.3891536 0.35539308 1.0063367e-38
-0.30514559 -0.38874847 0.35520157 1.0063367e-38
-0.29508722 -0.38588187 0.35485804 1.0063367e-38
-0.43213546 -0.37453625 0.35693854 1.0063367e-38
-0.42821714 -0.37513775 0.35208744 1.0063367e-38
-0.30020773 -0.37181628 0.35937351 1.0063367e-38
-0.29586631 -0.37487638 0.35474968 1.0063367e-38
-0.43422073 -0.36464068 0.35651475 1.0063367e-38
-0.42983979 -0.36775881 0.35185862 1.0063367e-38
-0.30170512 -0.36260357 0.35840839 1.0063367e-38
-0.29684648 -0.36623484 0.3532986 1.0063367e-38
-0.43552619 -0.35414475 0.35489962 1.0063367e-38
-0.30222368 -0.35411334 0.35641092 1.0063367e-38
-0.2976867 -0.35670739 0.35138938 1.0063367e-38
-0.44225621 -0.34247437 0.35989338 1.0063367e-38
-0.43692514 -0.34470701 0.35373712 1.0063367e-38
-0.30406311 -0.34379384 0.35553834 1.0063367e-38
-0.29944202 -0.34806275 0.35093409 1.0063367e-38
-0.4412539 -0.33547622 0.35640806 1.0063367e-38
-0.43798178 -0.33684996 0.35263056 1.0063367e-38
-0.30579501 -0.33528399 0.3550953 1.0063367e-38
-0.44383964 -0.32558948 0.35663122 1.0063367e-38
-0.43839464 -0.32947245 0.35084623 1.0063367e-38
-0.307697 -0.32558909 0.35449922 1.0063367e-38
-0.44510156 -0.31495652 0.35491744 1.0063367e-38
-0.3123228 -0.31320915 0.35656399 1.0063367e-38
-0.30746859 -0.31692469 0.35148641 1.0063367e-38
-0.45141068 -0.30195481 0.35895211 1.0063367e-38
-0.44606799 -0.30467594 0.35293418 1.0063367e-38
-0.31329167 -0.30299884 0.35460588 1.0063367e-38
-0.45268419 -0.2939319 0.3580724 1.0063367e-38
-0.44838071 -0.29514793 0.3529188 1.0063367e-38
-0.31559229 -0.29639465 0.35549244 1.0063367e-38
-0.45284617 -0.28499326 0.35549155 1.0063367e-38
-0.32106784 -0.28480044 0.35889679 1.0063367e-38
-0.31654549 -0.28578526 0.35338902 1.0063367e-38
-0.45489478 -0.27472675 0.35511678 1.0063367e-38
-0.3220596 -0.27219459 0.35621652 1.0063367e-38
-0.31825039 -0.27696055 0.35281253 1.0063367e-38
-0.45613095 -0.26613897 0.35435545 1.0063367e-38
-0.323369 -0.26376411 0.35525498 1.0063367e-38
-0.45645994 -0.2565788 0.35580885 1.0063367e-38
-0.32495794 -0.25547901 0.35469872 1.0063367e-38
-0.45529214 -0.24582714 0.35568753 1.0063367e-38
-0.44976032 -0.24170649 0.35953921 1.0063367e-38
-0.33028504 -0.24539092 0.35838467 1.0063367e-38
-0.32583469 -0.24628754 0.35294193 1.0063367e-38
-0.45431092 -0.23587266 0.35444373 1.0063367e-38
-0.44966641 -0.23147722 0.35732275 1.0063367e-38
-0.33269519 -0.23459594 0.35809678 1.0063367e-38
-0.32783195 -0.23574816 0.35220331 1.0063367e-38
-0.45426828 -0.22609216 0.35228515 1.0063367e-38
-0.44749722 -0.22449701 0.35756224 1.0063367e-38
-0.33304781 -0.22490694 0.35550934 1.0063367e-38
-0.32933176 -0.22495596 0.3507452 1.0063367e-38
-0.45313698 -0.21430604 0.35058278 1.0063367e-38
-0.44711715 -0.21386133 0.35549277 1.0063367e-38
-0.33489776 -0.21559229 0.35496518 1.0063367e-38
-0.44392255 -0.20568761 0.35631761 1.0063367e-38
-0.33748877 -0.20516863 0.3550266 1.0063367e-38
-0.44394493 -0.19723676 0.35440335 1.0063367e-38
-0.43774474 -0.19225186 0.35844475 1.0063367e-38
-0.34231788 -0.19507623 0.35807037 1.0063367e-38
-0.33838925 -0.19575393 0.35322994 1.0063367e-38
-0.44330493 -0.18577999 0.35236603 1.0063367e-38
-0.43779513 -0.18548009 0.35688391 1.0063367e-38
-0.34290504 -0.18448608 0.35550204 1.0063367e-38
-0.33855966 -0.18512179 0.35011226 1.0063367e-38
-0.44240892 -0.17197555 0.35001493 1.0063367e-38
-0.43513048 -0.17419431 0.35656977 1.0063367e-38
-0.34479654 -0.17531142 0.35505563 1.0063367e-38
-0.43486801 -0.16465035 0.35464722 1.0063367e-38
-0.4281466 -0.16172116 0.3595835 1.0063367e-38
-0.35074246 -0.16539288 0.35959083 1.0063367e-38
-0.34673843 -0.16557908 0.35449913 1.0063367e-38
-0.43341967 -0.15422983 0.35351497 1.0063367e-38
-0.42700028 -0.15319079 0.35862404 1.0063367e-38
