X Y Z R G B
1.605687 -2.43 0.09 0 0 0
2.94 3.499687 -1.26 142 142 142
-3.48 5.55 -1.53 0 0 0
-1.29 -0.75 -0.5433491 0 0 0
2.94 5.88 -1.53 0 0 0
-4.630312 5.19 -1.47 193 193 193
3.99 6.499687 0.33 0 0 0
4.05 6.499687 -1.29 163 163 163
-1.86 5.34 1.53 0 0 0
-0.54 2.61 0.8545026 0 0 0
0.57 2.52 0.8483847 0 0 0
-1.23 1.5 -0.5892973 0 0 0
-1.44 5.76 -1.53 0 0 0
-4.630312 5.07 -1.53 214 214 214
3.21 5.22 -1.53 0 0 0
-4.630312 3.99 -0.9 0 0 0
3.39 3.499687 0.27 0 0 0
-4.5 5.01 -1.53 214 214 214
-1.5 3.499687 -1.32 193 193 193
2.46 5.52 -1.53 0 0 0
-1.35 0.42 -0.4955111 0 0 0
-1.17 6.499687 0.3 0 0 0
-1.02 5.88 1.53 0 0 0
-4.630312 6.45 -0.36 183 183 183
0.57 2.43 -0.8483149 0 0 0
-0.36 2.76 0.881583 0 0 0
3.57 3.499687 -0.93 0 0 0
-1.65 3.87 -1.53 61 61 61
4.630312 5.73 0.06 0 0 0
1.615552 -2.97 0.03 0 0 0
-2.67 5.43 1.53 0 0 0
-0.84 -3.499687 -0.66 234 234 234
3.39 5.46 -1.53 0 0 0
-1.26 0.75 -0.5679957 0 0 0
4.630312 6.36 1.26 234 234 234
-1.29 1.5 0.5433741 0 0 0
-0.48 -3.39 -0.8635938 204 204 204
1.41 3.54 -1.53 163 163 163
-4.35 3.84 1.53 183 183 183
0.15 6.499687 0.06 0 0 0
-4.630312 6.09 -0.15 0 0 0
1.83 4.05 -1.53 0 0 0
0.3 0.36 -0.8904229 0 0 0
2.82 6.499687 -0.06 0 0 0
1.02 6.499687 -0.66 0 0 0
0.3 -1.14 -0.8904474 0 0 0
-0.39 0.33 0.8765759 0 0 0
0.57 -1.17 0.8483021 0 0 0
-2.79 5.13 -1.53 0 0 0
2.55 3.499687 -1.11 10 10 10
-0.03 4.44 1.53 0 0 0
3.15 6.36 -1.53 193 193 193
0.45 4.02 -1.53 0 0 0
-1.29 -0.9899999 -0.5433653 0 0 0
-3.18 6.499687 1.08 0 0 0
-1.74 3.499687 0.63 61 61 61
4.630312 3.9 0.09 40 40 40
3.75 4.68 -1.53 0 0 0
-2.4 3.78 1.53 112 112 112
3.75 3.499687 0.18 0 0 0
-4.14 6.499687 -0.63 0 0 0
-0.96 6.21 1.53 153 153 153
0.09 2.4 -0.9028125 0 0 0
-3.66 3.499687 0.57 0 0 0
4.62 6.499687 0.45 204 204 204
0.78 2.85 -0.7935078 0 0 0
1.5 6.499687 -0.54 0 0 0
-0.84 1.59 0.7735957 0 0 0
-1.555781 2.61 -0.24 0 0 0
3.66 3.87 -1.53 71 71 71
-1.50547 3.0 -0.33 0 0 0
-3.54 6.499687 0.27 0 0 0
-3.69 6.499687 -0.36 0 0 0
2.94 4.38 -1.53 0 0 0
0.51 1.65 0.859226 0 0 0
0.63 -1.92 0.8323591 0 0 0
-2.04 4.23 1.53 0 0 0
2.22 3.499687 1.29 193 193 193
1.59 3.499687 -1.53 183 183 183
-1.14 2.76 0.6390625 0 0 0
3.51 6.39 1.53 163 163 163
-1.610394 3.42 0.06 153 153 153
-4.630312 4.62 0.57 0 0 0
-4.630312 6.09 1.35 183 183 183
-1.601074 -3.12 -0.12 81 81 81
-0.36 0.3 -0.8815919 0 0 0
-2.34 6.499687 -0.72 0 0 0
0.24 6.499687 0.54 0 0 0
0.57 -0.42 -0.8484213 0 0 0
-1.615542 0.9899999 0.03 0 0 0
-4.05 5.49 1.53 0 0 0
1.541308 -3.3 -0.27 153 153 153
0.78 6.15 -1.53 40 40 40
1.29 6.499687 0.48 0 0 0
2.88 6.15 1.53 112 112 112
-3.0 3.499687 -1.14 10 10 10
-3.45 6.499687 0.24 0 0 0
1.98 4.95 1.53 0 0 0
3.54 4.62 1.53 0 0 0
1.02 6.499687 -0.03 0 0 0
-4.41 6.0 -1.53 122 122 122
-0.84 -3.499687 -0.36 122 122 122
1.83 5.04 -1.53 0 0 0
0.45 -3.499687 0.15 0 0 0
1.14 -3.18 0.6390625 132 132 132
-0.48 3.63 1.53 234 234 234
3.84 6.499687 0.57 0 0 0
-4.38 3.499687 -0.96 142 142 142
-0.75 3.499687 -1.44 214 214 214
-1.14 -2.13 0.6390625 0 0 0
3.36 5.64 1.53 0 0 0
-4.26 4.8 -1.53 30 30 30
-0.87 3.3 -0.7619895 183 183 183
-0.06 -3.499687 0.03 0 0 0
2.13 3.81 -1.53 102 102 102
3.6 4.56 -1.53 0 0 0
-3.87 6.499687 1.5 214 214 214
1.584168 -3.0 -0.18 0 0 0
0.9899999 6.33 1.53 173 173 173
1.86 3.6 -1.53 193 193 193
-1.47 3.499687 -0.93 20 20 20
-0.57 0.42 -0.8484213 0 0 0
0.9899999 4.29 -1.53 0 0 0
4.630312 6.15 -0.03 61 61 61
1.049887 1.8 -0.69 0 0 0
2.43 6.499687 -1.26 173 173 173
4.630312 4.14 -0.6 0 0 0
1.53 -0.12 0.2942788 0 0 0
-3.81 5.58 -1.53 0 0 0
1.71 6.33 -1.53 214 214 214
-1.23 2.49 0.5891216 0 0 0
0.0 3.57 -1.53 224 224 224
1.08 5.52 -1.53 0 0 0
4.17 3.499687 -1.35 142 142 142
0.3 6.499687 1.5 204 204 204
2.82 4.56 1.53 0 0 0
-4.630312 3.75 1.32 234 234 234
-4.630312 3.51 -0.12 193 193 193
-1.38 6.3 1.53 204 204 204
-4.630312 4.8 0.93 0 0 0
-2.28 3.499687 1.47 142 142 142
1.41 5.46 1.53 0 0 0
-1.60125 -0.6 0.12 0 0 0
1.26 -0.66 -0.5678546 0 0 0
1.08 3.03 -0.6734483 0 0 0
2.7 4.77 1.53 0 0 0
-4.630312 5.55 1.02 0 0 0
-0.51 5.52 1.53 0 0 0
-0.06 1.26 -0.9043872 0 0 0
4.2 6.499687 0.72 30 30 30
-4.05 6.0 1.53 0 0 0
1.08 4.2 1.53 0 0 0
1.610502 -0.69 0.06 0 0 0
-1.98 5.31 -1.53 0 0 0
-1.56 6.499687 1.38 183 183 183
2.07 3.499687 0.33 0 0 0
0.81 4.17 1.53 0 0 0
0.45 -0.18 0.8680111 0 0 0
-4.630312 6.48 -0.72 224 224 224
-4.630312 5.55 1.17 40 40 40
1.62 5.52 1.53 0 0 0
0.75 -1.95 0.8014761 0 0 0
-1.555466 -2.37 -0.24 0 0 0
3.15 6.27 1.53 183 183 183
1.59 2.49 0.1678125 0 0 0
-2.28 4.8 -1.53 0 0 0
-2.16 4.11 1.53 0 0 0
-0.9899999 6.499687 1.44 183 183 183
3.45 6.499687 0.18 0 0 0
1.05 5.19 -1.53 0 0 0
2.28 6.499687 -0.03 0 0 0
-0.21 6.499687 -1.11 10 10 10
-1.83 5.04 -1.53 0 0 0
-0.09 5.46 -1.53 0 0 0
1.11 3.72 -1.53 153 153 153
4.630312 6.18 0.63 112 112 112
2.37 3.499687 0.0 0 0 0
-4.56 6.499687 0.72 142 142 142
3.93 3.499687 0.18 0 0 0
-1.38 3.499687 -0.48 214 214 214
4.630312 5.04 0.57 0 0 0
1.62 4.86 1.53 0 0 0
-1.596691 0.87 0.15 0 0 0
0.06 -0.45 -0.9042633 0 0 0
-0.39 -2.28 -0.8770353 0 0 0
-0.12 3.39 -0.9013323 224 224 224
-4.35 3.99 1.53 132 132 132
-4.56 3.499687 1.35 255 255 255
-4.630312 4.26 1.11 10 10 10
0.39 -3.499687 0.33 0 0 0
-1.2 3.499687 -1.29 193 193 193
1.8 3.499687 -0.57 71 71 71
-0.21 3.499687 1.08 214 214 214
-0.87 2.97 -0.7617188 0 0 0
-1.86 3.81 1.53 91 91 91
1.14 3.499687 0.96 91 91 91
1.570313 -0.9899999 0.21 0 0 0
-3.03 3.499687 -0.6 0 0 0
1.32 4.35 -1.53 0 0 0
4.14 3.499687 -0.36 0 0 0
-4.630312 5.76 -0.69 0 0 0
-0.78 6.499687 1.2 40 40 40
-3.84 3.499687 -1.26 183 183 183
4.17 3.499687 1.38 204 204 204
2.7 4.2 1.53 0 0 0
-0.81 2.31 0.785625 0 0 0
-0.69 4.98 -1.53 0 0 0
-3.48 3.75 -1.53 163 163 163
2.49 3.499687 1.35 214 214 214
-1.59 3.499687 0.45 163 163 163
-3.15 3.57 -1.53 204 204 204
0.69 6.0 -1.53 0 0 0
-1.59 6.499687 1.17 81 81 81
-0.12 2.97 -0.9009375 0 0 0
1.83 4.74 1.53 0 0 0
3.81 5.13 1.53 0 0 0
-3.66 6.499687 -1.26 163 163 163
1.89 4.95 1.53 0 0 0
-1.05 -3.499687 0.03 0 0 0
4.05 4.68 -1.53 0 0 0
-3.66 6.499687 -1.47 214 214 214
0.03 2.37 -0.905625 0 0 0
1.5 3.499687 1.32 193 193 193
-1.08 -3.36 0.6730976 173 173 173
-4.29 6.499687 -0.9 132 132 132
1.2 -3.499687 0.33 224 224 224
-1.35 1.17 0.49581 0 0 0
-0.12 5.73 1.53 0 0 0
-3.57 3.499687 -0.78 0 0 0
3.48 6.3 -1.53 183 183 183
-3.93 3.81 1.53 122 122 122
-3.78 6.499687 0.6 0 0 0
1.430334 -2.7 -0.42 0 0 0
-1.95 5.1 1.53 0 0 0
-0.6 6.499687 -1.23 102 102 102
-1.05 3.499687 0.69 193 193 193
0.9 -3.499687 0.69 214 214 214
-1.11 -1.44 -0.65625 0 0 0
1.2 -2.67 -0.6058261 0 0 0
-0.27 -3.499687 0.72 183 183 183
2.25 3.499687 0.72 0 0 0
-2.34 5.73 -1.53 0 0 0
0.601875 2.19 0.84 0 0 0
3.42 4.02 1.53 0 0 0
-4.630312 5.61 -0.27 0 0 0
0.75 1.44 0.8015447 0 0 0
-3.51 6.499687 -0.96 0 0 0
0.36 -0.54 -0.8814833 0 0 0
-1.44 4.23 -1.53 0 0 0
-4.630312 6.15 0.09 71 71 71
4.17 3.499687 -0.75 0 0 0
-1.610627 -0.93 0.06 0 0 0
4.630312 4.47 1.26 183 183 183
-0.27 0.15 -0.8936901 0 0 0
-0.9899999 -2.46 0.7149358 0 0 0
4.630312 4.29 1.26 153 153 153
-1.26 2.58 -0.5680791 0 0 0
-4.630312 4.41 -0.45 0 0 0
3.78 4.38 -1.53 0 0 0
-1.35 4.74 1.53 0 0 0
-4.630312 3.87 -0.51 81 81 81
4.630312 5.79 0.03 0 0 0
0.57 0.66 -0.8483253 0 0 0
4.44 6.15 1.53 214 214 214
2.55 5.55 -1.53 0 0 0
-2.13 3.75 1.53 132 132 132
-1.615153 2.19 0.03 0 0 0
-2.43 4.74 -1.53 0 0 0
-4.11 6.499687 0.03 10 10 10
-3.09 6.499687 -1.14 20 20 20
-4.630312 3.9 -1.14 40 40 40
-2.64 6.15 1.53 81 81 81
-1.86 3.99 -1.53 20 20 20
0.48 -1.86 0.8635461 0 0 0
-4.2 3.499687 -0.27 0 0 0
-0.69 -0.45 0.8168736 0 0 0
2.43 5.31 -1.53 0 0 0
0.48 0.96 0.863559 0 0 0
-3.15 6.499687 -0.09 0 0 0
1.92 3.6 1.53 214 214 214
0.42 3.12 0.8722792 71 71 71
-1.77 4.68 -1.53 0 0 0
4.630312 5.13 -1.14 61 61 61
1.68 5.49 -1.53 0 0 0
0.15 0.96 0.9 0 0 0
-4.630312 5.97 -0.24 0 0 0
0.51 -1.5 0.8589944 0 0 0
-4.35 5.79 -1.53 112 112 112
3.78 5.25 -1.53 0 0 0
-1.5 6.499687 -1.41 173 173 173
1.98 6.499687 0.03 0 0 0
-0.27 -0.12 0.8937576 0 0 0
-4.630312 5.13 -1.2 112 112 112
3.24 6.06 -1.53 10 10 10
-4.29 6.499687 1.41 244 244 244
-1.95 3.499687 -0.57 0 0 0
-3.45 6.499687 -0.9899999 0 0 0
3.69 6.42 -1.53 214 214 214
-0.57 6.499687 0.12 0 0 0
-2.85 6.499687 -1.47 214 214 214
0.09 -2.52 -0.9029027 0 0 0
-0.81 5.34 -1.53 0 0 0
-2.85 6.499687 0.81 0 0 0
-0.24 5.67 -1.53 0 0 0
2.31 6.499687 1.32 163 163 163
-4.630312 5.82 0.72 0 0 0
-0.66 6.15 1.53 91 91 91
3.87 6.499687 -0.09 0 0 0
-1.86 5.46 1.53 0 0 0
4.630312 5.82 0.24 0 0 0
-0.72 3.499687 0.84 204 204 204
-1.049564 -0.9899999 -0.69 0 0 0
-3.81 3.96 -1.53 0 0 0
2.52 3.93 1.53 30 30 30
-1.41 6.499687 1.14 40 40 40
0.18 5.34 -1.53 0 0 0
0.69 -1.59 0.8165064 0 0 0
-0.9899999 4.14 -1.53 0 0 0
4.630312 5.19 -1.11 30 30 30
-1.48075 -0.51 -0.36 0 0 0
0.51 1.05 0.8588443 0 0 0
2.31 3.499687 0.87 0 0 0
0.6 6.499687 1.2 132 132 132
1.44 6.499687 0.54 0 0 0
-2.85 6.499687 0.36 0 0 0
0.9899999 -3.42 -0.7149712 234 234 234
-4.630312 5.76 -0.12 0 0 0
-0.09 3.42 0.9025201 204 204 204
-4.630312 4.68 0.21 0 0 0
4.59 3.499687 -0.78 193 193 193
-1.32 2.76 0.5196875 0 0 0
1.08 1.86 -0.6732247 0 0 0
-4.41 3.499687 0.9 193 193 193
-4.630312 4.02 -0.15 10 10 10
-1.62 4.14 -1.53 0 0 0
-3.3 4.41 1.53 0 0 0
-1.540937 1.83 -0.27 0 0 0
1.38 5.28 -1.53 0 0 0
-0.6 -0.27 -0.8404086 0 0 0
0.48 1.26 0.8633244 0 0 0
4.5 5.04 1.53 224 224 224
-3.39 5.97 1.53 0 0 0
4.23 4.35 1.53 71 71 71
4.630312 6.42 -0.54 204 204 204
-4.56 3.499687 0.51 193 193 193
1.47 6.499687 -0.63 0 0 0
-1.02 -3.42 -0.70321 234 234 234
-1.11 3.499687 1.23 142 142 142
1.430418 -3.33 -0.42 163 163 163
0.69 4.74 1.53 0 0 0
-1.35 5.94 -1.53 0 0 0
0.45 5.25 -1.53 0 0 0
-4.630312 5.19 0.33 0 0 0
1.71 5.94 -1.53 0 0 0
0.84 -0.42 0.7737368 0 0 0
4.11 3.78 1.53 183 183 183
-3.03 3.499687 1.35 193 193 193
-2.85 3.499687 -0.63 0 0 0
2.91 3.93 -1.53 10 10 10
-0.09 -0.45 -0.902694 0 0 0
-1.74 4.98 1.53 0 0 0
-0.69 1.5 0.8165331 0 0 0
3.0 6.499687 -1.17 61 61 61
-1.29 3.499687 -1.2 112 112 112
-1.605827 -0.27 -0.09 0 0 0
-2.25 4.26 1.53 0 0 0
-3.03 4.29 1.53 0 0 0
-2.91 3.499687 -1.02 0 0 0
4.08 6.499687 0.57 0 0 0
0.9899999 5.94 1.53 0 0 0
-3.66 3.499687 -0.45 0 0 0
4.2 3.499687 0.48 0 0 0
4.630312 4.65 0.09 0 0 0
-1.050008 2.34 0.69 0 0 0
0.96 3.0 -0.7264433 10 10 10
-0.06 6.499687 1.41 193 193 193
-0.96 2.25 0.7265096 0 0 0
2.1 4.26 1.53 0 0 0
-0.54 3.21 0.8544925 132 132 132
0.09 6.499687 0.63 0 0 0
-1.569936 -0.06 0.21 0 0 0
-2.34 6.499687 -0.9899999 0 0 0
0.12 2.52 -0.9008493 0 0 0
0.27 1.62 0.8940687 0 0 0
-3.27 6.499687 1.26 132 132 132
1.29387 -2.49 -0.54 0 0 0
-4.02 6.499687 -0.96 0 0 0
3.3 3.499687 -0.06 0 0 0
-4.630312 6.0 1.5 163 163 163
1.74 6.27 -1.53 193 193 193
2.04 6.18 1.53 122 122 122
2.34 3.499687 1.44 214 214 214
-2.7 5.13 1.53 0 0 0
-0.06 6.499687 1.11 20 20 20
4.02 3.78 1.53 183 183 183
2.37 3.93 1.53 0 0 0
4.32 3.499687 0.48 163 163 163
-1.209478 -1.11 0.6 0 0 0
-3.36 3.499687 1.5 234 234 234
-4.02 6.499687 -0.72 0 0 0
-1.65 6.499687 -0.12 0 0 0
3.72 5.94 -1.53 0 0 0
-1.26 4.53 1.53 0 0 0
4.630312 5.82 -1.11 10 10 10
-0.24 1.56 -0.8950991 0 0 0
-1.610491 1.8 0.06 0 0 0
-2.49 5.97 1.53 0 0 0
-0.84 0.54 -0.7734711 0 0 0
-2.4 3.81 -1.53 122 122 122
-0.15 -3.499687 -0.18 0 0 0
0.9 6.499687 0.57 0 0 0
-4.630312 5.16 -1.35 193 193 193
1.605736 -1.14 -0.09 0 0 0
-1.95 6.499687 -0.51 0 0 0
-4.630312 3.87 0.0 91 91 91
-1.60125 -3.27 0.12 224 224 224
3.75 5.55 -1.53 0 0 0
4.38 3.499687 -1.35 255 255 255
-1.41 6.499687 0.42 0 0 0
2.7 5.73 1.53 0 0 0
0.66 -3.48 -0.8248076 214 214 214
-0.9 6.48 -1.53 204 204 204
-1.294127 -0.84 0.54 0 0 0
1.2 1.44 -0.6056708 0 0 0
4.29 3.81 -1.53 163 163 163
-4.630312 4.05 0.15 0 0 0
-0.48 -1.47 -0.8636921 0 0 0
1.480505 3.33 0.36 204 204 204
0.84 3.69 -1.53 214 214 214
-1.610491 0.0 -0.06 0 0 0
0.27 5.43 1.53 0 0 0
-1.600982 -1.77 -0.12 0 0 0
-1.480576 0.09 0.36 0 0 0
1.294142 -3.15 0.54 81 81 81
-0.27 6.499687 0.33 0 0 0
1.049747 -0.96 -0.69 0 0 0
-0.1489009 0.66 -0.9 0 0 0
3.15 6.499687 -0.57 0 0 0
-4.630312 5.73 0.51 0 0 0
0.42 4.68 -1.53 0 0 0
-0.24 3.18 -0.8953466 142 142 142
2.16 4.8 -1.53 0 0 0
-1.47 3.499687 1.47 193 193 193
-1.26 -1.74 0.5678295 0 0 0
3.33 3.78 -1.53 183 183 183
-2.07 5.61 1.53 0 0 0
-4.630312 4.92 0.03 0 0 0
-0.9899999 4.53 -1.53 0 0 0
2.64 5.88 1.53 0 0 0
-0.21 4.65 -1.53 0 0 0
2.76 3.499687 0.03 0 0 0
1.2 6.3 -1.53 224 224 224
1.56 6.499687 0.3 0 0 0
0.81 1.8 -0.785625 0 0 0
-0.42 -0.36 0.87225 0 0 0
-0.7164655 -0.39 0.81 0 0 0
3.9 6.499687 0.63 0 0 0
-1.71 6.499687 0.18 0 0 0
-1.29 -3.499687 -0.45 234 234 234
4.630312 4.95 -0.24 0 0 0
-2.07 6.3 1.53 193 193 193
-0.63 -2.13 -0.8324736 0 0 0
0.78 -3.0 0.7931916 0 0 0
-0.15 6.499687 -0.33 0 0 0
-0.72 6.499687 0.57 0 0 0
0.39 4.35 1.53 0 0 0
2.55 6.499687 -1.44 193 193 193
0.69 1.02 -0.8164924 0 0 0
-0.9899999 -1.35 -0.7147565 0 0 0
-0.9 6.499687 -0.81 0 0 0
2.94 6.499687 -0.84 0 0 0
1.32 5.7 1.53 0 0 0
-4.630312 4.11 0.63 0 0 0
-0.36 3.75 -1.53 214 214 214
-0.09 3.499687 1.47 244 244 244
0.33 6.499687 -0.57 0 0 0
0.51 -1.71 -0.8589852 0 0 0
-2.94 6.499687 0.87 0 0 0
-1.77 6.33 -1.53 183 183 183
-1.35 4.08 1.53 0 0 0
0.03 -2.25 0.906013 0 0 0
4.56 4.86 1.53 234 234 234
-1.2 -0.66 -0.6057742 0 0 0
-1.555854 0.42 0.24 0 0 0
1.23 -0.72 0.5891877 0 0 0
4.630312 3.69 1.02 153 153 153
0.96 -1.29 -0.7263029 0 0 0
2.34 3.499687 -0.39 0 0 0
-2.55 4.26 -1.53 0 0 0
1.540937 -2.1 -0.27 0 0 0
-0.36 -1.5 0.8817868 0 0 0
1.86 6.499687 1.29 204 204 204
1.23 -2.88 0.5892788 0 0 0
2.7 4.95 -1.53 0 0 0
4.17 5.64 1.53 0 0 0
-3.03 6.499687 0.51 0 0 0
-3.81 6.499687 -0.24 0 0 0
-4.56 5.88 1.53 163 163 163
-3.42 5.85 -1.53 0 0 0
3.03 3.499687 -1.02 0 0 0
2.25 3.499687 0.33 0 0 0
2.73 6.499687 -1.11 30 30 30
-4.630312 4.5 -0.03 0 0 0
0.3 5.55 -1.53 0 0 0
0.69 6.499687 -0.69 0 0 0
-0.24 3.48 0.8955904 214 214 214
-0.96 -1.53 -0.7263536 0 0 0
1.527071 -1.38 0.3 0 0 0
4.23 6.21 1.53 183 183 183
2.04 6.499687 -1.35 183 183 183
4.35 4.83 -1.53 142 142 142
-0.09 4.2 -1.53 0 0 0
4.630312 5.73 -0.66 0 0 0
-1.480823 0.75 0.36 0 0 0
-1.14 6.0 -1.53 0 0 0
1.430458 -1.47 0.42 0 0 0
1.555537 -0.63 -0.24 0 0 0
1.455452 -2.1 -0.39 0 0 0
-0.48 -2.88 0.8637153 0 0 0
-3.72 3.499687 -0.06 0 0 0
-0.42 2.79 0.872297 0 0 0
-2.28 5.16 1.53 0 0 0
1.049796 -0.6 0.69 0 0 0
0.3 -0.21 -0.8907572 0 0 0
-1.605935 0.3 -0.09 0 0 0
-1.505785 0.15 0.33 0 0 0
-0.21 0.18 -0.8971875 0 0 0
3.15 3.499687 -0.03 0 0 0
-0.6 4.83 1.53 0 0 0
-2.22 5.64 1.53 0 0 0
-4.630312 4.68 0.51 0 0 0
-4.32 6.499687 0.87 40 40 40
4.630312 4.68 0.18 0 0 0
4.02 3.499687 -0.81 0 0 0
-0.21 -1.77 0.8971905 0 0 0
-0.9899999 3.6 -1.53 204 204 204
0.0 4.41 -1.53 0 0 0
-2.88 6.499687 -0.18 0 0 0
2.49 3.69 -1.53 183 183 183
4.41 3.57 1.53 244 244 244
-1.47 6.499687 -0.9899999 0 0 0
-1.02 2.25 -0.7031522 0 0 0
1.62 4.32 -1.53 0 0 0
1.29 6.12 1.53 0 0 0
-4.5 6.42 -1.53 244 244 244
-1.86 6.499687 1.17 91 91 91
2.19 3.499687 -0.81 0 0 0
4.630312 5.91 0.0 0 0 0
0.9899999 -2.58 0.7147464 0 0 0
-1.2 -0.69 0.605814 0 0 0
1.02 4.44 1.53 0 0 0
0.3 5.88 1.53 0 0 0
0.39 5.55 1.53 0 0 0
-4.29 6.499687 0.81 30 30 30
0.6016083 0.75 -0.84 0 0 0
1.65 4.8 -1.53 0 0 0
-0.09 6.499687 0.51 0 0 0
-0.18 6.499687 0.63 0 0 0
-3.84 6.499687 0.9 0 0 0
-1.14 1.17 0.6390625 0 0 0
4.47 3.499687 -0.3 204 204 204
-1.38 6.42 1.53 204 204 204
4.630312 4.14 -0.42 0 0 0
0.21 6.48 -1.53 224 224 224
-2.19 6.499687 -1.02 0 0 0
-1.11 6.42 -1.53 234 234 234
0.06 2.4 0.9038121 0 0 0
-1.23 -3.499687 -0.48 234 234 234
-3.72 4.2 -1.53 0 0 0
-4.62 5.25 -1.53 183 183 183
3.24 6.499687 0.84 0 0 0
-0.42 -3.499687 -0.63 173 173 173
1.605981 0.3 -0.09 0 0 0
3.03 6.18 -1.53 153 153 153
0.42 5.07 -1.53 0 0 0
-1.569934 -1.8 0.21 0 0 0
4.630312 5.58 -0.69 0 0 0
-0.57 0.72 -0.8483595 0 0 0
3.75 4.89 -1.53 0 0 0
-3.18 4.23 -1.53 0 0 0
-1.2 0.42 0.6058513 0 0 0
1.60125 -2.43 -0.12 0 0 0
-3.45 6.499687 -0.69 0 0 0
-4.38 3.54 -1.53 244 244 244
0.15 -1.23 -0.8997676 0 0 0
-4.14 3.69 1.53 204 204 204
3.84 4.89 1.53 0 0 0
1.257055 -2.04 -0.57 0 0 0
3.87 3.499687 -1.5 142 142 142
-4.05 3.499687 0.3 0 0 0
-0.72 6.499687 -1.11 20 20 20
-4.630312 4.56 1.44 204 204 204
1.540937 -1.44 0.27 0 0 0
1.89 3.72 1.53 204 204 204
1.5 3.81 1.53 122 122 122
-4.630312 4.29 -1.32 204 204 204
-0.24 3.15 0.8954968 102 102 102
1.5 6.499687 0.57 0 0 0
-0.36 6.499687 -0.87 0 0 0
-0.96 3.499687 1.2 153 153 153
-0.78 -1.29 -0.7931314 0 0 0
-2.85 6.499687 -1.32 153 153 153
0.27 2.79 0.8936564 0 0 0
0.57 -3.499687 -0.66 193 193 193
1.32 3.42 -0.5196875 183 183 183
0.9899999 3.45 -0.7147568 204 204 204
2.37 6.33 1.53 173 173 173
0.96 6.499687 -1.5 224 224 224
0.9 5.22 -1.53 0 0 0
-0.24 5.34 1.53 0 0 0
1.455471 -0.3 0.39 0 0 0
-1.14 6.499687 -0.48 0 0 0
1.41 4.41 -1.53 0 0 0
0.03 1.08 -0.9055046 0 0 0
0.1364984 -2.94 0.9 0 0 0
4.630312 4.35 0.96 0 0 0
2.16 5.28 -1.53 0 0 0
-1.605931 2.04 0.09 0 0 0
4.630312 4.38 1.02 0 0 0
3.75 3.499687 -0.66 0 0 0
4.630312 5.73 -0.12 0 0 0
2.22 5.73 1.53 0 0 0
3.3 3.499687 0.03 0 0 0
0.66 -0.39 0.8247081 0 0 0
-2.28 6.499687 0.66 0 0 0
-4.630312 4.41 1.2 112 112 112
1.38 3.499687 -0.51 193 193 193
-4.53 5.58 -1.53 173 173 173
-4.630312 6.27 1.05 173 173 173
-1.14 0.96 0.6390625 0 0 0
0.42 -3.499687 0.42 0 0 0
4.630312 5.82 -0.66 0 0 0
2.64 6.499687 0.45 0 0 0
-0.72 6.499687 1.32 153 153 153
1.71 4.89 1.53 0 0 0
0.0 2.04 -0.9075 0 0 0
-0.51 3.499687 0.93 214 214 214
-1.430497 0.78 0.42 0 0 0
0.69 3.6 -1.53 193 193 193
0.96 -3.499687 -0.45 214 214 214
3.45 5.4 -1.53 0 0 0
-1.98 6.499687 0.15 0 0 0
4.630312 5.28 -1.35 224 224 224
-3.24 5.58 -1.53 0 0 0
-0.75 0.21 -0.8014663 0 0 0
2.7 6.0 1.53 10 10 10
1.32 2.49 0.5196875 0 0 0
2.76 6.499687 -0.78 0 0 0
-1.52708 -2.25 -0.3 0 0 0
2.25 3.499687 0.93 0 0 0
-1.14 6.499687 -1.53 234 234 234
-4.53 4.65 1.53 204 204 204
-1.2 3.15 -0.6056776 40 40 40
4.630312 4.77 0.63 0 0 0
-0.36 -3.499687 -0.3 0 0 0
-1.83 6.21 1.53 142 142 142
1.38 -1.71 0.4715644 0 0 0
3.51 5.22 1.53 0 0 0
-0.51 -1.17 -0.8590313 0 0 0
0.42 1.95 0.8724288 0 0 0
2.4 4.44 1.53 0 0 0
1.14 -3.499687 0.03 0 0 0
1.68 3.499687 0.45 153 153 153
-0.09 0.39 -0.9027708 0 0 0
2.58 5.31 -1.53 0 0 0
3.39 5.73 -1.53 0 0 0
0.36 1.26 0.8812542 0 0 0
-3.75 3.93 1.53 20 20 20
-1.71 5.58 1.53 0 0 0
4.630312 5.61 0.51 0 0 0
-2.82 5.79 -1.53 0 0 0
2.88 6.499687 -0.9 0 0 0
0.54 6.15 -1.53 81 81 81
-3.63 6.499687 -0.54 0 0 0
-0.21 6.499687 -0.36 0 0 0
2.94 4.14 -1.53 0 0 0
3.42 4.65 1.53 0 0 0
-3.03 3.499687 1.47 193 193 193
1.62 2.73 0.0 0 0 0
-3.42 3.96 -1.53 0 0 0
-0.69 6.499687 -0.36 0 0 0
-4.17 5.16 1.53 0 0 0
0.96 -0.15 0.7265017 0 0 0
-0.78 1.62 0.7928719 0 0 0
3.42 6.499687 -0.51 0 0 0
-3.27 3.72 -1.53 183 183 183
0.03 6.499687 -1.05 10 10 10
-1.26 5.49 1.53 0 0 0
-1.65 6.499687 -1.08 10 10 10
0.75 -0.3 0.8015358 0 0 0
0.09 -3.499687 0.12 0 0 0
0.69 2.64 -0.8171187 0 0 0
1.430121 -1.35 0.42 0 0 0
-1.610932 3.03 -0.06 0 0 0
3.9 6.499687 -0.9 0 0 0
-0.42 -3.15 0.87225 91 91 91
-4.630312 4.47 -0.87 0 0 0
-1.41 4.98 1.53 0 0 0
4.630312 6.3 -1.41 244 244 244
-0.33 -1.62 -0.8856543 0 0 0
1.71 3.499687 -0.81 0 0 0
-4.630312 5.76 0.9 0 0 0
-2.22 6.499687 -0.18 0 0 0
-1.32 -2.88 0.5198125 0 0 0
-1.56 5.13 1.53 0 0 0
0.72 6.499687 0.63 0 0 0
-0.24 -2.73 0.8953735 0 0 0
1.610976 1.38 -0.06 0 0 0
-1.65 6.499687 1.11 10 10 10
2.64 3.499687 0.51 0 0 0
-1.05 -3.499687 0.33 102 102 102
0.24 4.86 1.53 0 0 0
0.84 3.499687 -1.11 142 142 142
-2.73 4.23 -1.53 0 0 0
2.64 3.499687 -1.53 204 204 204
4.630312 3.87 -1.11 102 102 102
1.59 4.2 1.53 0 0 0
0.06 0.24 0.9039351 0 0 0
-1.08 -2.91 -0.6731536 0 0 0
0.54 2.85 0.854625 0 0 0
-0.69 5.34 -1.53 0 0 0
2.97 3.499687 -0.9 0 0 0
-3.0 3.499687 -1.02 0 0 0
-0.27 -1.2 -0.8941533 0 0 0
1.62 2.1 0.0 0 0 0
-0.57 5.25 1.53 0 0 0
-3.75 4.32 1.53 0 0 0
-4.630312 5.46 -0.21 0 0 0
2.1 6.499687 -1.41 193 193 193
0.15 3.499687 -1.53 214 214 214
-0.18 2.46 0.8983141 0 0 0
2.22 5.67 -1.53 0 0 0
-0.3 -0.09 -0.8900772 0 0 0
0.15 4.98 -1.53 0 0 0
2.79 6.42 1.53 214 214 214
0.7150611 3.3 0.81 214 214 214
1.584375 0.9 -0.18 0 0 0
1.35 -0.15 -0.4957772 0 0 0
0.06 2.28 0.9042548 0 0 0
3.12 6.499687 -1.08 0 0 0
-0.75 -3.03 -0.801091 0 0 0
-0.87 -2.07 0.7617188 0 0 0
-1.40525 -0.51 -0.45 0 0 0
1.555513 2.82 0.24 0 0 0
3.96 6.499687 1.5 214 214 214
0.21 -2.88 -0.8971875 0 0 0
2.13 5.73 1.53 0 0 0
0.7151706 -1.65 0.81 0 0 0
1.23 -3.48 -0.5892815 204 204 204
1.584203 0.33 0.18 0 0 0
0.9899999 6.499687 0.48 0 0 0
-2.82 6.499687 -0.87 0 0 0
-0.96 3.499687 -1.5 214 214 214
-2.1 3.499687 0.48 0 0 0
-4.35 5.19 -1.53 112 112 112
-4.630312 5.19 1.47 224 224 224
-0.48 -1.92 -0.8637037 0 0 0
-1.596756 0.66 -0.15 0 0 0
4.630312 4.2 -1.02 10 10 10
-4.56 4.08 1.53 183 183 183
1.505808 -0.6 -0.33 0 0 0
1.47 5.31 1.53 0 0 0
-1.60125 1.95 0.12 0 0 0
4.62 5.34 1.53 193 193 193
-4.630312 5.22 0.66 0 0 0
-0.96 6.27 -1.53 163 163 163
1.56 4.95 1.53 0 0 0
-1.505483 -1.38 -0.33 0 0 0
1.59 3.499687 -0.66 142 142 142
1.08 1.62 0.6731312 0 0 0
2.28 5.34 1.53 0 0 0
3.42 5.91 1.53 0 0 0
-3.75 3.499687 0.36 0 0 0
-1.2 5.94 1.53 0 0 0
1.569844 -2.25 -0.21 0 0 0
1.71 3.499687 -0.45 132 132 132
-1.11 5.1 1.53 0 0 0
-1.14 3.03 -0.6390517 0 0 0
-2.22 3.499687 -0.27 0 0 0
-3.81 6.499687 -0.51 0 0 0
-3.99 4.2 1.53 0 0 0
0.42 -0.87 -0.8724368 0 0 0
-4.630312 5.49 1.2 122 122 122
-1.02 6.499687 1.11 20 20 20
-2.88 4.86 -1.53 0 0 0
-4.630312 5.49 -0.45 0 0 0
-1.430118 2.64 -0.42 0 0 0
-1.74 3.57 -1.53 204 204 204
-1.2 3.36 0.6056647 183 183 183
-0.601875 -1.29 0.84 0 0 0
-4.56 3.54 1.53 255 255 255
-2.55 4.65 -1.53 0 0 0
1.5 5.61 1.53 0 0 0
-1.68 6.33 -1.53 163 163 163
-0.33 -0.93 -0.8858211 0 0 0
0.0 3.39 0.9075 193 193 193
1.480654 -0.87 0.36 0 0 0
-0.81 3.66 -1.53 214 214 214
-0.09 -0.87 0.9026955 0 0 0
-0.87 5.4 1.53 0 0 0
0.39 -2.79 0.8769547 0 0 0
4.630312 3.99 0.78 0 0 0
4.14 3.499687 -1.05 10 10 10
0.24 6.45 1.53 204 204 204
3.9 6.499687 -1.44 193 193 193
1.17 6.42 1.53 163 163 163
4.630312 5.25 -0.78 0 0 0
1.2 -1.68 0.6057759 0 0 0
-4.62 4.11 1.53 193 193 193
2.25 4.11 1.53 0 0 0
1.556026 -2.76 -0.24 0 0 0
-2.67 3.499687 -0.54 0 0 0
-1.455449 -3.15 -0.39 81 81 81
-1.103437 0.33 -0.66 0 0 0
-1.08 -1.38 -0.6733339 0 0 0
2.4 3.499687 1.23 142 142 142
0.27 4.77 -1.53 0 0 0
-3.3 6.499687 -0.27 0 0 0
-4.44 5.28 -1.53 132 132 132
2.73 6.499687 0.51 0 0 0
-0.93 -3.499687 0.03 0 0 0
0.3 6.499687 0.66 0 0 0
0.51 -1.89 -0.8590111 0 0 0
-0.84 -3.499687 -0.57 234 234 234
-4.630312 4.32 0.42 0 0 0
-1.89 6.499687 0.6 0 0 0
4.5 6.499687 1.26 234 234 234
-2.49 6.499687 0.06 0 0 0
2.16 5.67 1.53 0 0 0
0.42 -0.27 0.8723041 0 0 0
4.56 6.499687 0.36 204 204 204
0.9 -3.499687 -0.51 204 204 204
3.57 3.499687 -0.33 0 0 0
-1.95 6.499687 0.42 0 0 0
1.29 5.46 1.53 0 0 0
3.81 6.48 1.53 224 224 224
-0.81 -0.39 -0.785625 0 0 0
1.71 6.499687 0.0 0 0 0
3.48 3.499687 -0.36 0 0 0
1.38 6.499687 -1.08 10 10 10
-3.33 5.7 1.53 0 0 0
-3.6 5.61 -1.53 0 0 0
2.76 4.77 -1.53 0 0 0
1.29 5.13 1.53 0 0 0
2.31 6.499687 0.24 0 0 0
-2.4 5.16 1.53 0 0 0
-0.69 0.06 0.8169253 0 0 0
-4.630312 3.66 -0.33 183 183 183
0.6017969 1.47 0.84 0 0 0
-0.42 3.499687 -1.47 244 244 244
4.32 6.42 1.53 244 244 244
0.3 4.2 1.53 0 0 0
3.87 5.61 -1.53 0 0 0
-1.38 -0.06 0.4715768 0 0 0
-2.43 3.499687 1.08 10 10 10
-1.540937 -1.65 -0.27 0 0 0
0.45 2.22 -0.8678766 0 0 0
4.47 6.499687 1.05 204 204 204
0.66 1.77 -0.8248097 0 0 0
2.64 3.69 1.53 214 214 214
-2.73 5.19 1.53 0 0 0
2.31 6.499687 -0.15 0 0 0
-1.48049 2.19 -0.36 0 0 0
0.57 -1.44 0.8483511 0 0 0
1.8 3.499687 1.35 193 193 193
-3.06 6.499687 -1.26 142 142 142
-1.21063 0.21 0.6 0 0 0
2.85 6.06 1.53 30 30 30
0.24 6.499687 0.63 0 0 0
2.73 5.55 -1.53 0 0 0
-1.89 6.499687 0.33 0 0 0
0.24 3.21 0.8952927 163 163 163
0.0 -0.21 0.9075 0 0 0
-1.26 -3.499687 0.06 142 142 142
3.48 6.499687 -0.9 0 0 0
-1.32 3.499687 -1.35 204 204 204
-0.63 4.44 -1.53 0 0 0
4.630312 4.56 0.42 0 0 0
-1.480529 -2.28 0.36 0 0 0
1.98 6.499687 -0.54 0 0 0
-2.49 3.499687 -1.41 193 193 193
4.44 4.53 -1.53 204 204 204
3.06 3.499687 -1.32 193 193 193
2.37 6.499687 0.48 0 0 0
4.41 3.499687 -0.33 173 173 173
4.41 6.499687 0.81 193 193 193
0.84 3.15 -0.7733447 112 112 112
1.430295 0.45 0.42 0 0 0
0.51 5.25 1.53 0 0 0
-1.98 6.499687 1.02 10 10 10
1.5 -3.03 0.3366999 0 0 0
-1.26 4.17 -1.53 0 0 0
-1.29 4.5 -1.53 0 0 0
1.02 0.96 -0.703375 0 0 0
-1.605591 0.21 0.09 0 0 0
3.72 4.47 1.53 0 0 0
-1.35 -2.25 0.4957918 0 0 0
-0.21 -1.44 0.8971875 0 0 0
0.81 2.64 -0.785625 0 0 0
-0.75 5.04 -1.53 0 0 0
-3.78 6.45 -1.53 214 214 214
4.630312 4.23 -0.45 0 0 0
-0.33 2.25 -0.8859072 0 0 0
4.630312 5.79 -0.09 0 0 0
-4.23 3.499687 -0.72 30 30 30
-0.96 3.499687 1.02 173 173 173
4.53 3.78 1.53 234 234 234
4.630312 4.53 -0.45 0 0 0
0.81 2.34 -0.785625 0 0 0
-1.5 2.37 0.3369544 0 0 0
2.34 6.499687 -1.38 183 183 183
-4.630312 5.01 0.54 0 0 0
4.62 3.499687 -0.18 214 214 214
0.9003953 -2.55 0.75 0 0 0
4.32 3.499687 1.47 234 234 234
-4.35 3.66 1.53 244 244 244
-4.630312 3.99 -0.33 0 0 0
-0.66 1.83 -0.8245933 0 0 0
3.09 6.499687 0.03 0 0 0
-3.39 6.499687 0.51 0 0 0
-4.53 3.499687 -1.44 234 234 234
-3.36 3.499687 1.35 234 234 234
0.36 4.5 1.53 0 0 0
4.630312 4.02 1.5 214 214 214
-0.12 1.77 -0.9010506 0 0 0
2.34 4.29 1.53 0 0 0
0.9899999 3.499687 1.38 214 214 214
3.06 4.47 1.53 0 0 0
2.88 6.499687 1.5 204 204 204
-0.63 -3.21 0.832442 142 142 142
2.61 6.27 -1.53 173 173 173
2.34 6.499687 0.69 0 0 0
4.630312 5.22 0.9 0 0 0
1.38 -0.93 -0.4717484 0 0 0
-0.45 -0.54 -0.8680782 0 0 0
-0.6014483 -2.85 -0.84 0 0 0
2.76 5.01 -1.53 0 0 0
-3.12 3.499687 0.84 0 0 0
2.37 3.84 1.53 81 81 81
4.2 4.11 -1.53 40 40 40
0.06 2.01 0.9040216 0 0 0
0.24 -1.74 -0.895575 0 0 0
0.24 3.81 -1.53 173 173 173
0.42 5.52 -1.53 0 0 0
2.58 4.41 -1.53 0 0 0
4.630312 4.56 0.72 0 0 0
0.57 3.499687 -1.35 193 193 193
1.41 3.499687 -1.08 20 20 20
-1.29 3.499687 1.5 173 173 173
3.09 6.09 -1.53 40 40 40
3.57 6.499687 -0.72 0 0 0
-1.11 -2.85 -0.656234 0 0 0
-4.630312 3.84 1.41 214 214 214
-0.21 -3.24 -0.8971875 204 204 204
-0.24 0.84 0.8955426 0 0 0
-3.48 6.499687 0.0 0 0 0
4.08 4.62 -1.53 0 0 0
3.63 3.499687 -0.9 0 0 0
0.96 4.71 -1.53 0 0 0
-4.630312 4.71 1.14 51 51 51
4.630312 5.7 0.45 0 0 0
4.630312 5.7 -0.06 0 0 0
0.84 4.62 1.53 0 0 0
-3.0 3.499687 -0.66 0 0 0
0.03 6.499687 1.02 0 0 0
3.63 3.499687 0.54 0 0 0
-2.79 3.499687 -1.11 51 51 51
2.85 4.32 1.53 0 0 0
-1.32 0.63 -0.5198478 0 0 0
-0.9 6.499687 -1.44 193 193 193
4.630312 5.4 -0.27 0 0 0
-1.605714 1.05 0.09 0 0 0
-0.24 2.58 0.8955181 0 0 0
-2.97 6.499687 0.03 0 0 0
-0.39 2.49 0.876899 0 0 0
-3.27 6.499687 0.72 0 0 0
3.48 4.77 1.53 0 0 0
-3.09 3.499687 1.29 204 204 204
-1.257323 -0.9 0.57 0 0 0
1.38 3.499687 0.72 81 81 81
-1.59 6.499687 -0.18 0 0 0
-0.6 6.18 1.53 132 132 132
-1.295138 0.45 -0.54 0 0 0
-2.91 6.499687 1.2 61 61 61
0.84 -3.03 0.7737331 20 20 20
0.87 3.6 1.53 214 214 214
-1.02 -2.73 -0.7034806 0 0 0
-0.6 6.499687 0.06 0 0 0
4.630312 5.64 -1.14 61 61 61
-2.4 6.499687 0.57 0 0 0
-3.72 5.76 -1.53 0 0 0
4.35 5.76 -1.53 142 142 142
0.24 2.28 0.8953998 0 0 0
-1.65 4.23 1.53 0 0 0
-0.39 -1.83 0.8765883 0 0 0
-1.77 3.499687 -0.9 0 0 0
0.09 5.31 -1.53 0 0 0
4.38 3.499687 1.11 163 163 163
4.630312 6.48 -1.35 234 234 234
2.04 3.499687 0.18 0 0 0
2.04 6.499687 0.39 0 0 0
-2.79 6.499687 0.51 0 0 0
0.09 3.66 1.53 234 234 234
-0.39 -3.499687 -0.81 224 224 224
-1.540937 0.36 -0.27 0 0 0
0.57 5.55 -1.53 0 0 0
1.615308 -2.79 0.03 0 0 0
-2.28 6.499687 -0.36 0 0 0
-0.15 6.499687 0.48 0 0 0
2.19 3.84 1.53 61 61 61
-1.605903 -3.21 -0.09 183 183 183
-0.601875 0.48 -0.84 0 0 0
-0.51 3.499687 -1.26 224 224 224
0.9 4.05 1.53 0 0 0
4.26 6.499687 -0.03 91 91 91
3.69 6.499687 -0.09 0 0 0
1.606163 -0.84 0.09 0 0 0
0.21 -0.03 -0.8971875 0 0 0
-0.48 3.499687 -1.35 234 234 234
-0.18 5.94 1.53 0 0 0
-2.01 3.499687 0.51 0 0 0
-1.541153 -2.01 -0.27 0 0 0
4.02 6.499687 0.03 0 0 0
0.27 5.1 1.53 0 0 0
1.5 3.499687 -1.35 153 153 153
-0.36 -0.12 0.8815117 0 0 0
0.48 -1.35 -0.8634914 0 0 0
-1.32 -1.5 0.5198317 0 0 0
-0.72 3.48 -0.8091706 224 224 224
0.15 -2.49 -0.8997608 0 0 0
4.41 3.66 1.53 234 234 234
-0.51 -3.499687 0.72 183 183 183
-0.48 4.38 1.53 0 0 0
-2.58 3.499687 0.03 0 0 0
-3.93 6.499687 0.72 0 0 0
1.48061 -3.03 -0.36 0 0 0
-0.9009429 -1.35 0.75 0 0 0
4.630312 6.06 -1.35 173 173 173
-4.47 3.96 -1.53 193 193 193
0.3 -0.81 -0.8901282 0 0 0
1.23 6.499687 0.45 0 0 0
2.16 5.55 1.53 0 0 0
-3.27 3.57 1.53 234 234 234
1.526766 2.79 0.3 0 0 0
1.555573 1.47 -0.24 0 0 0
-0.96 -2.19 -0.7262019 0 0 0
-2.49 4.32 -1.53 0 0 0
-3.18 6.499687 0.6 0 0 0
1.08 -2.04 0.6731665 0 0 0
-0.12 -1.86 -0.9013339 0 0 0
-1.23 0.69 -0.5892871 0 0 0
-4.630312 6.0 0.21 0 0 0
-4.630312 4.14 -1.05 0 0 0
0.87 6.499687 -0.9 0 0 0
-1.38 -0.9899999 -0.4715625 0 0 0
-1.405435 1.68 -0.45 0 0 0
-1.62 -2.25 -0.001073718 0 0 0
-1.455446 -1.62 -0.39 0 0 0
4.05 4.62 1.53 0 0 0
0.09 -3.499687 -0.57 102 102 102
-0.66 6.499687 1.02 0 0 0
3.27 4.59 -1.53 0 0 0
-1.71 6.499687 0.75 0 0 0
0.93 1.32 -0.7385581 0 0 0
-1.41 0.6 0.4446154 0 0 0
1.293924 2.55 0.54 0 0 0
-0.15 4.2 1.53 0 0 0
0.21 -0.6 0.8971875 0 0 0
-2.22 6.499687 0.03 0 0 0
0.27 2.1 0.8942257 0 0 0
1.2 0.57 0.6056558 0 0 0
-3.84 6.15 1.53 112 112 112
-0.6 5.31 1.53 0 0 0
3.39 3.499687 -0.81 0 0 0
0.48 2.34 0.8636872 0 0 0
-1.23 -2.82 0.589322 0 0 0
-4.29 6.499687 -1.53 224 224 224
-1.430136 1.26 -0.42 0 0 0
-4.630312 4.68 -0.51 0 0 0
-2.88 6.499687 0.96 0 0 0
1.86 3.499687 1.29 193 193 193
-4.08 6.27 1.53 224 224 224
-0.63 5.4 1.53 0 0 0
-3.39 3.499687 0.84 0 0 0
4.41 3.499687 1.44 234 234 234
-4.630312 6.3 -0.3 173 173 173
4.630312 4.2 0.96 0 0 0
2.25 6.09 1.53 30 30 30
4.14 6.499687 0.75 0 0 0
-4.44 3.499687 0.18 193 193 193
0.75 -3.3 -0.8014762 204 204 204
0.36 3.499687 -1.02 224 224 224
-2.91 4.92 -1.53 0 0 0
-4.630312 4.35 0.27 0 0 0
-2.37 6.499687 0.15 0 0 0
-2.7 6.499687 -0.63 0 0 0
-0.21 4.05 1.53 0 0 0
-4.630312 6.45 -0.09 204 204 204
-0.3 -3.499687 -0.81 224 224 224
3.39 3.499687 -1.29 204 204 204
-1.08 3.24 0.6729721 122 122 122
-2.7 5.52 -1.53 0 0 0
4.630312 3.75 -0.63 163 163 163
1.89 5.49 -1.53 0 0 0
-2.1 6.09 -1.53 10 10 10
1.2 4.95 -1.53 0 0 0
2.85 4.98 -1.53 0 0 0
-3.69 6.21 -1.53 153 153 153
-0.15 3.6 -1.53 234 234 234
-2.25 5.25 -1.53 0 0 0
-2.37 6.27 1.53 163 163 163
2.49 3.499687 -1.47 204 204 204
1.62 6.499687 0.51 0 0 0
0.78 5.67 1.53 0 0 0
4.56 5.58 -1.53 224 224 224
-0.12 -0.51 -0.9009375 0 0 0
-4.630312 4.38 0.15 0 0 0
-1.103437 -0.51 0.66 0 0 0
-2.19 6.499687 -0.81 0 0 0
0.69 3.499687 1.32 214 214 214
-1.41 3.499687 0.75 204 204 204
-1.5 3.499687 -0.36 214 214 214
4.630312 3.81 0.87 112 112 112
1.89 6.33 1.53 204 204 204
-3.45 6.42 -1.53 204 204 204
3.15 3.96 -1.53 30 30 30
-0.69 -1.05 0.8165212 0 0 0
3.96 6.499687 0.75 0 0 0
3.33 4.2 1.53 0 0 0
-1.8 6.09 -1.53 30 30 30
-2.88 5.85 1.53 0 0 0
3.0 3.75 1.53 173 173 173
-1.2 6.499687 -0.69 0 0 0
-0.6 5.85 -1.53 0 0 0
-4.630312 3.66 0.51 193 193 193
0.21 -0.45 -0.8971875 0 0 0
-4.630312 6.39 -1.02 255 255 255
0.39 1.5 -0.8769191 0 0 0
4.59 6.499687 -0.12 183 183 183
1.11 -1.98 0.6564044 0 0 0
1.32 6.499687 0.27 0 0 0
-2.94 6.499687 -1.5 204 204 204
-1.527013 0.63 0.3 0 0 0
-1.86 3.63 1.53 214 214 214
-1.95 4.95 1.53 0 0 0
-1.41 0.0 0.4446094 0 0 0
1.62 6.499687 -0.24 0 0 0
2.04 4.14 1.53 0 0 0
4.47 3.499687 -0.54 183 183 183
0.57 0.06 0.8481336 0 0 0
-2.94 6.499687 1.26 91 91 91
4.630312 6.48 -0.48 204 204 204
-1.5 6.499687 0.12 0 0 0
-1.605736 3.33 -0.09 163 163 163
1.41 -2.85 -0.444403 0 0 0
-0.09 -1.11 -0.9028125 0 0 0
0.54 3.33 0.8544334 214 214 214
4.08 6.499687 0.06 0 0 0
3.09 3.499687 1.17 91 91 91
4.26 5.25 1.53 71 71 71
1.95 3.66 1.53 224 224 224
-0.78 0.9899999 0.793547 0 0 0
0.54 -1.8 0.854387 0 0 0
0.09 4.38 1.53 0 0 0
-3.0 3.499687 1.41 193 193 193
4.630312 6.45 1.17 224 224 224
-0.81 3.09 0.785625 61 61 61
-3.42 4.83 -1.53 0 0 0
1.11 -0.72 0.6561654 0 0 0
-1.555919 -3.03 -0.24 10 10 10
-2.85 6.499687 0.66 0 0 0
-2.07 4.08 -1.53 0 0 0
-1.89 3.499687 -0.81 0 0 0
2.07 3.499687 -0.36 0 0 0
-0.48 2.97 0.8635695 0 0 0
-0.12 -2.16 0.9011467 0 0 0
-4.630312 3.99 -0.9899999 0 0 0
-3.6 6.39 1.53 163 163 163
-2.34 5.1 1.53 0 0 0
1.610822 -3.12 -0.06 40 40 40
-3.96 3.499687 0.51 0 0 0
4.23 3.499687 0.42 10 10 10
0.3 2.31 0.8902299 0 0 0
0.12 2.73 -0.9013237 0 0 0
3.78 6.24 -1.53 153 153 153
2.67 4.89 1.53 0 0 0
3.48 4.41 -1.53 0 0 0
-3.96 5.4 -1.53 0 0 0
-2.13 3.499687 1.5 173 173 173
0.15 6.499687 -1.23 132 132 132
0.69 -2.28 0.8164423 0 0 0
1.405347 -0.96 0.45 0 0 0
-0.06 -3.499687 -0.39 0 0 0
-0.75 -1.74 0.8012561 0 0 0
-1.89 3.499687 1.08 20 20 20
-4.38 5.94 -1.53 102 102 102
0.9007919 0.15 -0.75 0 0 0
1.584378 -0.93 0.18 0 0 0
4.11 4.23 1.53 0 0 0
-0.57 4.92 1.53 0 0 0
0.81 6.499687 0.27 0 0 0
-0.96 1.98 0.7263852 0 0 0
-1.44 4.11 1.53 0 0 0
-2.79 3.499687 0.27 0 0 0
4.630312 3.75 1.32 255 255 255
-0.15 3.27 0.8999493 204 204 204
-1.26 3.78 -1.53 163 163 163
3.48 3.499687 -0.69 0 0 0
4.29 5.85 1.53 61 61 61
0.15 3.57 -1.53 224 224 224
-0.63 -3.499687 -0.72 193 193 193
-4.630312 6.27 -1.14 244 244 244
4.630312 6.18 -1.2 173 173 173
3.93 5.25 1.53 0 0 0
-0.18 3.99 1.53 0 0 0
-2.85 3.6 1.53 183 183 183
-1.08 0.57 -0.6732017 0 0 0
-3.24 5.07 1.53 0 0 0
3.27 5.73 -1.53 0 0 0
1.83 6.499687 -1.11 61 61 61
4.630312 5.97 0.18 0 0 0
3.96 3.499687 1.35 224 224 224
-0.87 6.499687 -1.08 20 20 20
-0.51 2.25 0.8588849 0 0 0
-1.29 6.499687 0.57 0 0 0
-2.76 4.59 -1.53 0 0 0
-0.39 -2.04 -0.8766702 0 0 0
3.06 5.97 -1.53 0 0 0
0.42 -1.05 -0.8723347 0 0 0
0.09 0.75 0.9028159 0 0 0
2.97 6.499687 0.9899999 0 0 0
-4.32 6.499687 -1.35 214 214 214
-0.15 0.87 0.8995236 0 0 0
-2.25 6.0 1.53 0 0 0
0.54 -3.499687 -0.09 0 0 0
-4.26 6.499687 -0.27 91 91 91
1.62 6.499687 0.66 0 0 0
-2.4 3.9 -1.53 20 20 20
-2.34 3.499687 -0.75 0 0 0
-1.2 -3.499687 0.54 193 193 193
-1.455537 -3.0 0.39 0 0 0
4.630312 5.28 0.54 0 0 0
0.18 3.499687 -1.23 193 193 193
-4.630312 4.71 -0.57 0 0 0
-3.39 5.58 1.53 0 0 0
-3.81 4.68 -1.53 0 0 0
3.33 3.499687 0.9 0 0 0
-1.26 6.499687 0.66 0 0 0
-0.87 5.7 -1.53 0 0 0
3.15 6.499687 0.3 0 0 0
1.555798 0.12 -0.24 0 0 0
-1.606136 0.96 0.09 0 0 0
0.45 -1.41 -0.8677694 0 0 0
1.14 3.18 0.6390625 71 71 71
0.12 5.88 -1.53 0 0 0
-4.11 6.499687 1.05 20 20 20
-1.77 6.499687 0.81 0 0 0
-1.32 5.46 1.53 0 0 0
1.29 3.499687 -1.47 173 173 173
4.630312 5.76 -0.03 0 0 0
-0.9899999 3.499687 -1.11 102 102 102
4.08 4.11 1.53 0 0 0
4.630312 4.35 -0.03 0 0 0
-3.0 3.499687 -0.33 0 0 0
-1.71 6.39 -1.53 173 173 173
3.27 5.04 1.53 0 0 0
-1.35 6.499687 1.41 204 204 204
1.8 6.03 -1.53 0 0 0
1.74 6.09 -1.53 40 40 40
0.63 6.499687 -1.44 183 183 183
0.45 -1.29 -0.8678671 0 0 0
-0.54 3.499687 1.38 224 224 224
-1.14 6.499687 0.6 0 0 0
-4.630312 6.0 0.6 0 0 0
0.24 0.3 0.8953125 0 0 0
-1.14 3.69 1.53 183 183 183
-4.630312 3.57 0.75 204 204 204
-2.88 3.499687 -1.23 112 112 112
4.630312 5.49 1.41 163 163 163
-1.77 3.499687 -1.23 132 132 132
-4.630312 4.86 -0.09 0 0 0
4.23 6.499687 -1.11 51 51 51
0.7160808 2.22 -0.81 0 0 0
1.257106 1.47 -0.57 0 0 0
-1.8 5.28 -1.53 0 0 0
1.44 4.05 -1.53 0 0 0
4.630312 4.8 1.11 51 51 51
0.78 6.499687 0.57 0 0 0
-2.34 6.33 -1.53 193 193 193
-3.03 4.17 1.53 0 0 0
-3.15 3.499687 -0.9 0 0 0
-1.08 2.37 -0.6730255 0 0 0
-1.44 4.11 -1.53 0 0 0
-1.2 4.59 1.53 0 0 0
-4.630312 5.28 0.51 0 0 0
-0.06 -1.53 -0.9038067 0 0 0
-0.15 6.0 1.53 0 0 0
3.03 6.499687 -1.47 193 193 193
-0.69 3.27 0.8165518 173 173 173
0.81 2.76 0.785625 0 0 0
-0.69 0.81 0.8168325 0 0 0
-1.59 6.48 1.53 204 204 204
-1.23 2.25 -0.5887694 0 0 0
0.21 0.75 -0.8971875 0 0 0
4.630312 4.08 -0.12 0 0 0
-1.11 5.4 -1.53 0 0 0
-1.92 5.94 1.53 0 0 0
1.71 6.499687 -1.35 204 204 204
3.63 4.35 1.53 0 0 0
1.570313 -2.43 -0.21 0 0 0
0.51 -2.22 0.8587043 0 0 0
-0.9011178 -1.11 -0.75 0 0 0
-4.29 5.46 -1.53 51 51 51
2.67 4.23 -1.53 0 0 0
-2.43 3.499687 -0.21 0 0 0
4.630312 5.43 -0.48 0 0 0
-2.13 6.33 1.53 193 193 193
-0.63 4.8 -1.53 0 0 0
1.59 3.499687 -0.27 204 204 204
1.29 5.04 1.53 0 0 0
3.42 6.499687 -0.69 0 0 0
1.65 6.39 1.53 224 224 224
-0.18 -3.499687 0.66 173 173 173
-2.13 3.75 -1.53 153 153 153
1.89 3.87 -1.53 51 51 51
0.0 6.499687 1.35 193 193 193
-4.630312 3.51 -1.08 183 183 183
1.8 6.499687 -1.47 224 224 224
-1.41 5.4 -1.53 0 0 0
-3.15 6.3 1.53 142 142 142
0.87 -3.499687 -0.06 0 0 0
1.41 -3.499687 -0.12 193 193 193
3.3 6.499687 0.78 0 0 0
0.21 6.499687 -0.63 0 0 0
0.42 2.49 -0.87225 0 0 0
-3.42 4.59 1.53 0 0 0
2.58 5.46 -1.53 0 0 0
3.21 3.499687 0.63 0 0 0
3.72 6.499687 1.08 20 20 20
2.19 3.499687 0.57 0 0 0
2.82 6.499687 0.66 0 0 0
-4.630312 5.76 -0.9899999 0 0 0
4.59 5.85 -1.53 193 193 193
-1.59 3.96 1.53 0 0 0
-0.84 5.67 1.53 0 0 0
0.24 -2.85 0.8951762 0 0 0
-1.29 0.81 -0.5432189 0 0 0
3.96 6.499687 -0.84 0 0 0
4.23 6.499687 0.39 30 30 30
-0.51 2.46 0.8588288 0 0 0
-3.72 6.33 1.53 183 183 183
-1.5 2.37 -0.337108 0 0 0
-0.21 -0.45 0.8971875 0 0 0
-1.480502 3.15 -0.36 112 112 112
-3.78 3.499687 0.93 0 0 0
-4.630312 3.96 -1.29 163 163 163
2.16 3.499687 -0.24 0 0 0
1.59 6.499687 0.21 0 0 0
1.257023 3.42 -0.57 173 173 173
3.12 3.499687 -1.17 61 61 61
4.630312 4.68 -0.03 0 0 0
2.79 5.31 -1.53 0 0 0
-0.84 1.68 0.7735374 0 0 0
0.39 6.499687 0.18 0 0 0
2.94 3.93 1.53 10 10 10
1.17 3.42 0.6226251 112 112 112
-0.63 -2.34 -0.8324071 0 0 0
-1.86 6.499687 0.51 0 0 0
4.630312 4.95 -0.9899999 0 0 0
-1.584191 -2.97 0.18 0 0 0
-2.76 5.94 -1.53 0 0 0
2.64 6.499687 -1.26 132 132 132
2.64 4.83 1.53 0 0 0
0.87 2.82 -0.7619702 0 0 0
-1.35 -0.84 0.4956322 0 0 0
-3.66 6.499687 -1.02 0 0 0
0.3 -1.44 0.8901335 0 0 0
0.81 -3.499687 -0.24 0 0 0
-4.630312 6.36 1.02 173 173 173
-3.18 3.87 -1.53 71 71 71
-1.455349 1.8 0.39 0 0 0
-4.630312 6.3 -1.08 244 244 244
-0.87 0.36 0.761739 0 0 0
4.47 3.499687 -1.53 255 255 255
4.630312 5.13 -0.6 0 0 0
0.54 0.72 0.8543653 0 0 0
-3.39 3.499687 -0.27 0 0 0
1.02 -2.67 -0.7031719 0 0 0
-4.11 4.29 1.53 0 0 0
-0.81 4.14 1.53 0 0 0
0.78 3.09 -0.7932318 40 40 40
-2.28 3.499687 1.26 112 112 112
-0.69 4.5 -1.53 0 0 0
-3.0 4.89 1.53 0 0 0
-2.88 4.35 -1.53 0 0 0
-1.26 3.499687 1.32 163 163 163
-2.25 4.8 1.53 0 0 0
3.42 6.499687 0.51 0 0 0
1.92 5.67 -1.53 0 0 0
-3.9 3.499687 -0.69 0 0 0
1.23 4.08 -1.53 0 0 0
-1.08 3.03 0.6734483 0 0 0
4.630312 6.48 -0.75 204 204 204
-1.48068 -1.26 0.36 0 0 0
1.605785 -1.05 -0.09 0 0 0
-3.6 4.11 1.53 0 0 0
-0.39 4.95 -1.53 0 0 0
-4.38 3.499687 -0.45 163 163 163
0.09 1.92 0.9028125 0 0 0
-1.02 -2.28 -0.7033516 0 0 0
-0.51 -2.73 0.8587716 0 0 0
-2.64 5.19 1.53 0 0 0
1.14 1.29 -0.639044 0 0 0
-3.48 4.8 -1.53 0 0 0
1.83 5.25 1.53 0 0 0
2.82 6.33 1.53 214 214 214
4.630312 3.99 -0.12 0 0 0
-4.630312 6.18 -0.48 91 91 91
-3.0 6.499687 -1.47 204 204 204
0.6015805 0.3 0.84 0 0 0
1.556009 -1.8 -0.24 0 0 0
-1.505903 1.77 0.33 0 0 0
-0.69 1.08 0.8165499 0 0 0
4.630312 5.37 0.42 0 0 0
1.2 -3.18 0.6056456 153 153 153
4.630312 6.3 -0.09 173 173 173
2.4 5.64 -1.53 0 0 0
0.96 3.499687 -0.9 183 183 183
-0.78 0.69 -0.7935281 0 0 0
-2.85 6.499687 -0.36 0 0 0
3.63 3.499687 1.23 142 142 142
3.66 6.499687 0.72 0 0 0
-3.15 6.499687 0.9 0 0 0
-0.09 -1.41 0.9024695 0 0 0
-4.630312 4.95 -0.21 0 0 0
-0.51 -3.499687 -0.27 0 0 0
3.33 5.49 -1.53 0 0 0
3.75 3.96 -1.53 0 0 0
4.630312 4.14 0.9 0 0 0
3.3 3.66 -1.53 204 204 204
-4.630312 5.88 0.27 0 0 0
-2.55 3.499687 -0.54 0 0 0
-2.64 4.02 1.53 0 0 0
0.81 -1.29 -0.785625 0 0 0
4.2 3.499687 0.66 10 10 10
0.6 4.98 -1.53 0 0 0
-3.45 6.499687 1.2 91 91 91
4.59 5.82 1.53 163 163 163
-1.5 4.2 -1.53 0 0 0
-1.35 0.03 0.4956473 0 0 0
0.03 -2.91 -0.905625 0 0 0
-1.35 2.01 0.495673 0 0 0
1.54136 -3.27 0.27 183 183 183
-0.27 6.499687 -1.14 30 30 30
-0.45 1.8 0.8680696 0 0 0
-0.24 1.74 -0.895575 0 0 0
-0.54 3.499687 -1.2 214 214 214
2.79 5.55 1.53 0 0 0
0.24 0.39 -0.8955022 0 0 0
-3.54 3.499687 1.38 244 244 244
-2.76 3.499687 0.21 0 0 0
0.63 3.09 0.832459 20 20 20
1.95 6.499687 -0.21 0 0 0
0.72 -3.18 0.8094612 122 122 122
3.15 3.499687 0.84 0 0 0
4.630312 4.92 -0.69 0 0 0
-1.02 3.499687 0.96 183 183 183
0.0 1.41 -0.9075 0 0 0
-3.63 5.28 -1.53 0 0 0
0.27 3.499687 1.29 255 255 255
-1.23 -1.53 0.5893959 0 0 0
1.48075 -0.51 0.36 0 0 0
-4.630312 6.36 -0.24 214 214 214
-1.05 -0.6014062 0.69 0 0 0
3.0 6.499687 1.41 204 204 204
-0.39 -3.3 0.8769102 193 193 193
3.69 6.499687 -0.66 0 0 0
1.11 3.57 -1.53 193 193 193
-0.69 -2.43 0.8165393 0 0 0
-1.98 5.04 1.53 0 0 0
-4.630312 5.4 -0.81 0 0 0
-3.03 3.499687 -1.5 204 204 204
-1.23 -3.36 -0.5891379 234 234 234
-1.615028 -3.48 -0.03 244 244 244
-1.569934 1.8 -0.21 0 0 0
1.26 -3.499687 0.48 214 214 214
4.2 3.78 1.53 173 173 173
-0.63 3.3 0.8324137 193 193 193
-1.71 3.499687 1.32 204 204 204
3.9 5.19 1.53 0 0 0
-3.63 5.94 -1.53 0 0 0
3.69 5.58 -1.53 0 0 0
1.23 4.68 1.53 0 0 0
0.63 4.05 -1.53 0 0 0
-1.17 3.21 -0.6225 71 71 71
1.2 3.84 -1.53 51 51 51
-1.2 6.06 1.53 10 10 10
0.15 -3.03 -0.8995402 0 0 0
2.1 6.24 1.53 153 153 153
3.18 6.499687 0.93 0 0 0
-2.88 4.53 1.53 0 0 0
0.84 2.88 0.773625 0 0 0
-4.47 3.499687 -0.93 163 163 163
1.83 4.05 1.53 0 0 0
1.77 4.92 -1.53 0 0 0
-4.630312 4.62 0.96 0 0 0
0.39 -2.22 0.8770728 0 0 0
-4.630312 5.37 -0.21 0 0 0
-3.24 5.16 -1.53 0 0 0
-4.29 6.499687 -0.06 91 91 91
2.55 3.499687 0.42 0 0 0
-0.69 5.7 -1.53 0 0 0
-2.37 6.499687 0.03 0 0 0
3.69 3.99 -1.53 0 0 0
-0.78 2.1 -0.7935138 0 0 0
4.02 6.48 1.53 214 214 214
-1.35 4.44 -1.53 0 0 0
-0.06 -0.57 0.9042123 0 0 0
1.35 2.13 0.495515 0 0 0
-1.89 3.499687 0.15 71 71 71
1.14 -1.53 -0.6389755 0 0 0
0.51 6.499687 1.2 122 122 122
-1.05 6.499687 0.27 0 0 0
0.36 2.46 0.881721 0 0 0
-1.2 -2.01 -0.605916 0 0 0
3.99 5.43 1.53 0 0 0
0.33 6.499687 1.26 122 122 122
2.67 6.499687 -1.44 193 193 193
1.610533 0.9 0.06 0 0 0
-3.51 4.74 1.53 0 0 0
-2.7 6.499687 -0.06 0 0 0
-1.430369 3.42 -0.42 234 234 234
1.29 -0.48 -0.5441091 0 0 0
1.23 -1.71 -0.5891864 0 0 0
-4.14 6.03 -1.53 20 20 20
-1.455458 0.24 0.39 0 0 0
2.28 3.499687 0.45 0 0 0
-1.570221 -2.79 0.21 0 0 0
-1.05027 2.25 0.69 0 0 0
4.630312 4.11 -1.38 255 255 255
1.53 2.52 0.2935176 0 0 0
1.05 6.42 -1.53 214 214 214
0.21 3.499687 -0.96 224 224 224
-3.36 6.499687 1.08 30 30 30
-1.26 3.499687 1.23 132 132 132
4.38 5.94 -1.53 142 142 142
-2.58 3.66 1.53 142 142 142
1.2 -0.36 0.6057035 0 0 0
0.0 5.43 -1.53 0 0 0
1.77 3.499687 -0.27 153 153 153
-0.93 3.499687 -1.44 214 214 214
-4.630312 3.66 0.24 204 204 204
3.81 6.499687 1.32 204 204 204
1.555889 -1.74 0.24 0 0 0
-0.24 -0.84 0.8953922 0 0 0
-1.77 6.0 1.53 0 0 0
-0.48 2.64 0.8633944 0 0 0
0.51 3.51 1.53 224 224 224
2.94 3.499687 -0.78 0 0 0
-0.3 -0.81 -0.8904046 0 0 0
-4.630312 6.06 0.18 0 0 0
-4.630312 5.61 -0.42 0 0 0
0.63 -1.11 0.8324119 0 0 0
0.03 -3.499687 -0.63 142 142 142
4.630312 3.51 -0.87 183 183 183
0.75 6.499687 -0.96 0 0 0
-0.24 4.89 1.53 0 0 0
-1.14 2.61 0.6390098 0 0 0
4.630312 4.08 1.2 122 122 122
-3.48 6.15 1.53 51 51 51
-2.4 5.28 1.53 0 0 0
0.69 3.499687 -0.87 204 204 204
4.29 3.499687 -0.57 122 122 122
-1.86 6.499687 -0.48 0 0 0
-0.9899999 3.6 1.53 214 214 214
-0.21 6.499687 -0.66 0 0 0
1.14 6.499687 1.17 51 51 51
0.63 0.75 0.8324856 0 0 0
-1.35 3.75 -1.53 173 173 173
-1.23 -3.3 0.5892996 193 193 193
4.630312 5.34 -1.05 0 0 0
0.51 5.49 -1.53 0 0 0
0.0 0.3 0.9075 0 0 0
-2.22 3.499687 0.21 0 0 0
-0.75 4.32 1.53 0 0 0
0.24 0.54 -0.8953686 0 0 0
-0.6015064 -1.14 0.84 0 0 0
1.05 3.499687 -1.17 81 81 81
2.79 6.499687 -0.42 0 0 0
0.75 1.05 -0.8014996 0 0 0
-4.47 6.499687 -0.63 193 193 193
0.63 5.19 1.53 0 0 0
1.541271 -2.43 0.27 0 0 0
-3.12 3.499687 -1.08 0 0 0
-2.97 3.499687 0.24 0 0 0
-4.630312 3.72 0.9899999 193 193 193
4.630312 4.86 -0.87 0 0 0
2.01 5.25 1.53 0 0 0
-0.45 3.499687 1.47 244 244 244
2.58 5.04 1.53 0 0 0
1.86 3.99 -1.53 10 10 10
4.630312 5.91 -1.17 61 61 61
-0.7159562 -3.09 -0.81 0 0 0
-3.21 3.499687 0.84 0 0 0
1.83 3.499687 -1.38 193 193 193
-2.97 6.42 -1.53 204 204 204
0.18 6.499687 1.5 193 193 193
-0.6 -3.499687 -0.51 91 91 91
-0.69 -3.33 -0.8165158 204 204 204
1.14 3.499687 -0.72 193 193 193
-1.23 -0.54 -0.5888679 0 0 0
-4.630312 3.72 -0.36 153 153 153
1.02 -2.79 0.7031153 0 0 0
4.630312 5.19 -0.15 0 0 0
-0.12 -0.33 -0.9009375 0 0 0
3.66 4.77 1.53 0 0 0
2.16 4.47 -1.53 0 0 0
3.63 6.499687 -0.48 0 0 0
-4.08 6.499687 0.09 10 10 10
-1.11 6.499687 -0.27 0 0 0
-0.09 1.95 0.9025691 0 0 0
-0.24 -2.28 -0.8954567 0 0 0
-1.584756 -0.66 -0.18 0 0 0
3.12 4.11 1.53 0 0 0
4.08 4.47 1.53 0 0 0
3.3 3.499687 1.23 153 153 153
1.32 0.09 0.5196875 0 0 0
0.75 2.61 -0.8012103 0 0 0
-0.9899999 2.61 -0.7146927 0 0 0
1.480612 2.22 -0.36 0 0 0
-0.24 3.499687 1.32 234 234 234
2.91 6.15 -1.53 112 112 112
0.36 -3.12 0.8812625 51 51 51
1.156687 0.24 0.63 0 0 0
-0.21 3.499687 1.38 234 234 234
-4.630312 4.05 0.69 0 0 0
0.36 2.94 0.8815206 0 0 0
-4.2 6.09 -1.53 40 40 40
-3.69 4.35 -1.53 0 0 0
-3.18 3.499687 0.0 0 0 0
-2.16 6.499687 -0.51 0 0 0
-3.45 4.14 1.53 0 0 0
2.64 3.499687 -0.27 0 0 0
-3.9 5.4 1.53 0 0 0
-0.54 6.3 1.53 204 204 204
-4.2 5.85 1.53 0 0 0
-2.34 5.19 1.53 0 0 0
-3.15 3.499687 0.33 0 0 0
-1.23 3.499687 0.69 193 193 193
3.0 6.36 -1.53 204 204 204
-3.42 4.71 -1.53 0 0 0
-0.51 3.499687 1.02 193 193 193
-0.39 0.87 0.8773103 0 0 0
-4.630312 4.89 0.45 0 0 0
4.630312 4.2 -0.36 0 0 0
-3.63 6.499687 -0.75 0 0 0
-4.630312 3.51 -0.96 173 173 173
-2.97 3.54 -1.53 214 214 214
-2.82 6.499687 -0.3 0 0 0
-0.06 0.66 -0.9038231 0 0 0
0.84 -1.35 0.7736221 0 0 0
0.18 1.59 0.8982161 0 0 0
1.210412 -0.39 -0.6 0 0 0
4.630312 4.92 -1.08 10 10 10
-3.0 3.499687 0.9 0 0 0
3.3 6.499687 1.44 183 183 183
4.630312 6.0 0.63 0 0 0
-2.7 6.499687 0.96 0 0 0
4.05 4.44 -1.53 0 0 0
4.38 6.499687 0.33 173 173 173
-0.78 -3.499687 0.36 10 10 10
3.15 6.48 1.53 193 193 193
-1.77 5.7 1.53 0 0 0
3.78 4.02 1.53 0 0 0
2.43 3.499687 -0.21 0 0 0
-3.84 4.86 -1.53 0 0 0
-0.06 3.15 -0.9042388 163 163 163
0.6 6.15 1.53 142 142 142
-1.35 6.499687 1.05 10 10 10
-1.596836 -0.24 -0.15 0 0 0
-1.05 4.98 -1.53 0 0 0
4.29 6.499687 1.11 153 153 153
3.3 6.499687 -0.21 0 0 0
-3.54 6.36 1.53 163 163 163
-0.3 3.6 1.53 244 244 244
0.84 1.35 -0.7736221 0 0 0
3.87 4.95 -1.53 0 0 0
3.72 4.56 1.53 0 0 0
0.9899999 5.61 1.53 0 0 0
-3.87 6.0 -1.53 0 0 0
-3.6 3.499687 -0.06 0 0 0
1.89 6.499687 1.35 234 234 234
3.06 5.88 -1.53 0 0 0
-0.57 6.3 -1.53 132 132 132
-4.630312 4.53 0.96 0 0 0
-3.18 6.499687 0.69 0 0 0
-4.630312 5.7 0.45 0 0 0
-4.38 4.29 1.53 183 183 183
3.27 6.39 1.53 183 183 183
-2.1 3.499687 -1.29 193 193 193
-1.23 0.57 -0.589027 0 0 0
1.455588 0.39 -0.39 0 0 0
1.615337 -0.39 0.03 0 0 0
2.55 4.86 -1.53 0 0 0
-4.38 6.499687 -0.81 204 204 204
0.09 1.26 0.9027826 0 0 0
-1.95 3.66 1.53 183 183 183
-0.9899999 4.5 1.53 0 0 0
2.34 6.499687 0.0 0 0 0
-2.04 6.499687 0.42 0 0 0
1.68 6.499687 -1.17 61 61 61
1.56 3.499687 -1.02 0 0 0
-2.01 6.499687 -0.36 0 0 0
2.1 3.499687 -0.06 0 0 0
-0.06 2.79 -0.9039195 0 0 0
-1.14 -3.499687 -0.45 234 234 234
-0.9 -3.499687 -0.72 234 234 234
-0.51 -1.26 -0.8586255 0 0 0
0.48 3.499687 -1.11 204 204 204
1.38 3.75 1.53 153 153 153
-4.630312 4.41 -1.53 214 214 214
-3.75 6.499687 -0.78 0 0 0
-3.69 3.499687 0.15 0 0 0
0.51 -3.499687 -0.63 193 193 193
3.15 4.38 1.53 0 0 0
1.455295 -0.57 0.39 0 0 0
3.75 3.499687 -0.27 0 0 0
-0.45 -2.04 0.8680173 0 0 0
-1.2 -1.92 0.6057051 0 0 0
1.14 3.499687 -0.81 183 183 183
0.0 3.499687 1.38 244 244 244
2.16 3.499687 -0.03 0 0 0
3.15 3.499687 0.66 0 0 0
-2.64 3.499687 0.27 0 0 0
-1.257749 -2.73 0.57 0 0 0
4.630312 5.61 0.9 0 0 0
-4.630312 4.62 -0.9 0 0 0
-0.24 -0.24 -0.8952032 0 0 0
0.66 -0.21 -0.8249406 0 0 0
4.630312 4.47 -0.36 0 0 0
1.455602 -3.27 0.39 193 193 193
-0.75 0.66 0.8014619 0 0 0
3.57 3.499687 0.12 0 0 0
1.555747 -1.44 -0.24 0 0 0
-1.17 1.98 -0.6224497 0 0 0
-0.24 1.44 -0.8953281 0 0 0
-2.13 5.64 1.53 0 0 0
-0.63 3.36 -0.8323745 224 224 224
4.630312 6.24 1.2 193 193 193
-1.257656 -2.31 0.57 0 0 0
1.430256 3.06 -0.42 0 0 0
3.3 6.0 1.53 0 0 0
3.27 5.16 1.53 0 0 0
3.39 4.59 1.53 0 0 0
-2.31 4.38 1.53 0 0 0
1.610602 -1.95 0.06 0 0 0
0.78 6.499687 1.26 183 183 183
-2.85 5.55 -1.53 0 0 0
-1.2 5.31 -1.53 0 0 0
0.24 -0.9899999 -0.8953538 0 0 0
0.36 6.499687 -0.66 0 0 0
-0.7172651 1.02 0.81 0 0 0
-2.31 6.499687 0.18 0 0 0
2.64 5.67 -1.53 0 0 0
0.0 0.81 -0.9075 0 0 0
2.37 3.499687 0.57 0 0 0
1.53 3.499687 -1.17 61 61 61
0.1478664 -0.06 -0.9 0 0 0
-0.51 3.9 -1.53 51 51 51
-1.2 -3.03 -0.6058143 10 10 10
0.69 6.499687 -1.11 0 0 0
-4.630312 4.83 -1.5 224 224 224
-3.66 6.45 1.53 183 183 183
1.62 3.499687 -0.33 193 193 193
0.63 3.21 0.832442 153 153 153
-2.34 3.499687 0.15 0 0 0
1.541034 1.59 -0.27 0 0 0
-2.7 6.499687 0.42 0 0 0
0.3 -0.33 -0.890106 0 0 0
0.9899999 2.4 -0.7147508 0 0 0
0.21 -2.79 0.8971875 0 0 0
3.93 6.499687 -1.05 10 10 10
1.41 6.03 -1.53 10 10 10
2.7 6.09 1.53 20 20 20
3.9 6.499687 1.2 112 112 112
1.540937 0.57 0.27 0 0 0
0.9899999 1.59 0.7149519 0 0 0
2.88 6.499687 -0.18 0 0 0
3.78 3.499687 0.06 0 0 0
