X Y Z R G B
-1.205348 7.771561e-16 -0.5 0.0 0.0 0.0
-0.1433969 0.9891168 0.2132006 0.0 0.0 0.0
8.571702e-16 0.7428632 -0.2133231 0.0 0.0 0.0
1.962853 1.732051 0.4333406 0.0 0.0 0.0
-0.2167072 0.8026608 0.2377933 0.0 0.0 0.0
2.316451 1.434138 -0.328 0.0 0.0 0.0
-2.200895 1.403827 0.5175 0.0 0.0 0.0
-0.07137604 1.040859 -0.1743509 0.0 0.0 0.0
-0.5998585 0.7006157 -0.1649534 0.0 0.0 0.0
-0.7346886 0.7028638 -0.1627116 0.0 0.0 0.0
2.316451 1.150082 0.492 255.0 0.0 0.0
2.258673 0.2234346 0.1855 0.0 0.0 0.0
0.8595865 0.9249557 -0.2211524 255.0 0.0 0.0
2.143117 0.6681386 -0.79975 0.0 0.0 0.0
-0.7346886 0.6435322 -0.05994637 0.0 0.0 0.0
-1.089792 1.583094 -0.207 0.0 0.0 0.0
-1.824513 1.732051 0.4555604 0.0 0.0 0.0
1.089792 0.3282236 0.5175 0.0 0.0 0.0
0.9742364 0.8660254 -0.3484282 255.0 0.0 0.0
0.7346886 0.6435322 -0.05994637 0.0 0.0 0.0
1.205348 3.608225e-16 0.25 0.0 0.0 0.0
1.287006 1.732051 0.2277802 0.0 0.0 0.0
-2.316451 0.7062437 -0.27675 0.0 0.0 0.0
-0.7977583 0.8069205 0.2218075 0.0 0.0 0.0
-1.865342 4.440892e-16 0.5 255.0 0.0 0.0
1.089792 0.5074909 0.621 0.0 0.0 0.0
1.645344 1.682092 0.4111208 0.0 0.0 0.0
-0.4482921 1.104841 1.647987e-16 0.0 0.0 0.0
0.5998585 0.982564 0.2018508 0.0 0.0 0.0
2.08534 0.649519 -0.875 0.0 0.0 0.0
-0.6691358 0.7019544 0.1636184 0.0 0.0 0.0
0.8595865 1.064915 0.1148291 255.0 0.0 0.0
-0.4482921 1.074026 0.1200894 255.0 0.0 0.0
0.9030403 0.6688674 0.1966141 0.0 0.0 0.0
-1.368664 1.665439 0.4111208 255.0 0.0 0.0
1.205348 0.4330127 0.75 0.0 0.0 0.0
1.205348 4.996004e-16 -7.21645e-16 0.0 0.0 0.0
-2.258673 0.2234346 -6.938894e-18 0.0 0.0 0.0
-1.14757 0.8660254 0.914 0.0 0.0 0.0
-1.645344 0.4330127 -0.75 0.0 0.0 0.0
0.07137604 0.6276165 0.06423454 0.0 0.0 0.0
-2.200895 0.1489564 -6.245005e-17 0.0 0.0 0.0
0.9742364 1.201301 0.09033325 255.0 0.0 0.0
-0.8743778 0.6707642 -0.1947226 255.0 0.0 0.0
-0.2919519 1.039295 -0.1727921 0.0 0.0 0.0
1.922024 1.665439 0.4111208 0.0 0.0 0.0
-0.5256152 1.101795 1.526557e-16 0.0 0.0 0.0
-0.5998585 0.8660254 0.2344074 255.0 0.0 0.0
1.032014 1.187321 -0.5565 0.0 0.0 0.0
0.07137604 1.104434 0.06423454 255.0 0.0 0.0
-0.7977583 1.095057 1.960238e-16 255.0 0.0 0.0
-0.4482921 0.7466174 -0.2068206 0.0 0.0 0.0
0.4482921 0.8043955 -0.2312833 0.0 0.0 0.0
-2.143117 0.07447819 0.457 255.0 0.0 0.0
0.9742364 1.271516 -0.110618 255.0 0.0 0.0
0.8595865 1.09438 -1.665335e-16 255.0 0.0 0.0
-1.486589 1.732051 -0.4333406 0.0 0.0 0.0
-0.3697756 0.7451447 -0.2093716 0.0 0.0 0.0
-2.200895 1.403827 -0.5175 0.0 0.0 0.0
-2.200895 1.045293 0.7245 0.0 0.0 0.0
0.07137604 0.9296011 -0.2385855 0.0 0.0 0.0
2.143117 1.459686 -0.57125 0.0 0.0 0.0
-2.143117 0.4702518 -0.6855 0.0 0.0 0.0
1.089792 0.8660254 -0.828 0.0 0.0 0.0
-1.865342 0.8660254 1.0 0.0 0.0 0.0
-2.143117 0.07447819 -0.457 0.0 0.0 0.0
-1.962853 1.732051 -0.4333406 0.0 0.0 0.0
-0.5256152 0.9839104 -0.2041828 0.0 0.0 0.0
-1.205348 1.082532 -0.875 0.0 0.0 0.0
0.7977583 0.7034869 -0.1620901 255.0 0.0 0.0
-0.1433969 0.8024943 -0.2384179 0.0 0.0 0.0
0.7977583 1.095057 -1.682682e-16 255.0 0.0 0.0
-0.9742364 0.8660254 -0.656 0.0 0.0 0.0
0.9742364 1.111659 -0.4254493 0.0 0.0 0.0
0.9742364 1.434138 0.164 0.0 0.0 0.0
0.9742364 1.22612 -0.3516468 0.0 0.0 0.0
0.8595865 1.064915 -0.1148291 255.0 0.0 0.0
-0.9742364 0.6683932 0.197087 0.0 0.0 0.0
-1.205348 1.299038 0.75 0.0 0.0 0.0
2.08534 1.732051 -6.106227e-16 255.0 0.0 0.0
0.07137604 0.6911922 -0.1743509 0.0 0.0 0.0
0.3697756 0.6320627 0.0630366 0.0 0.0 0.0
1.922024 1.732051 -0.4111208 255.0 0.0 0.0
-0.8614929 0.8660254 0.264802 0.0 0.0 0.0
-0.07137604 0.9892033 -0.2133504 0.0 0.0 0.0
0.5998585 0.9261744 0.2257257 0.0 0.0 0.0
0.5998585 1.091584 0.06077229 0.0 0.0 0.0
1.205348 1.082532 -0.875 0.0 0.0 0.0
0.9742364 1.063658 0.197087 255.0 0.0 0.0
0.8614929 1.120831 -0.06865237 255.0 0.0 0.0
0.7346886 1.066269 -0.1156109 255.0 0.0 0.0
0.7346886 0.6657816 0.1156109 0.0 0.0 0.0
-0.9742364 1.074345 0.3608205 0.0 0.0 0.0
9.15934e-16 0.929593 0.2385549 0.0 0.0 0.0
1.205348 0.4330127 -0.75 0.0 0.0 0.0
0.9742364 0.596527 0.072611 0.0 0.0 0.0
-0.9742364 0.4399409 0.41 0.0 0.0 0.0
-0.2167072 1.040278 0.173772 0.0 0.0 0.0
-1.368664 1.665439 4.996004e-16 0.0 0.0 0.0
-2.143117 0.4702518 0.6855 255.0 0.0 0.0
-1.032014 1.026673 -0.64925 0.0 0.0 0.0
0.1433969 0.651608 -0.1237939 0.0 0.0 0.0
-1.425346 1.515544 0.625 255.0 0.0 0.0
-1.645344 1.299038 0.75 0.0 0.0 0.0
1.287006 1.732051 -1.873501e-16 0.0 0.0 0.0
1.783684 1.682092 -0.4111208 255.0 0.0 0.0
1.645344 0.2165063 0.625 0.0 0.0 0.0
8.638923e-16 0.627647 -0.06422632 0.0 0.0 0.0
-2.258673 1.508616 -0.1855 0.0 0.0 0.0
0.5256152 0.8051815 -0.2283335 0.0 0.0 0.0
-0.8595865 0.9802029 0.1977613 0.0 0.0 0.0
0.8595865 0.7518479 0.1977612 0.0 0.0 0.0
1.14757 1.261799 0.6855 0.0 0.0 0.0
0.3697756 0.9869061 -0.2093716 0.0 0.0 0.0
9.124645e-16 0.8024578 0.2385549 0.0 0.0 0.0
-1.865342 0.2165063 -0.625 0.0 0.0 0.0
1.425346 0.4330127 0.75 0.0 0.0 0.0
0.6691358 1.030096 -0.1636184 0.0 0.0 0.0
-2.258673 1.508616 3.95517e-16 0.0 0.0 0.0
2.316451 1.434138 0.328 255.0 0.0 0.0
-2.316451 1.434138 -0.164 0.0 0.0 0.0
8.569534e-16 0.6912146 -0.1743286 0.0 0.0 0.0
2.08534 0.4330127 -0.75 0.0 0.0 0.0
2.08534 0.2165063 0.625 0.0 0.0 0.0
2.258673 1.347969 -0.46375 0.0 0.0 0.0
-0.8614929 0.6112196 0.06865237 0.0 0.0 0.0
-1.368664 1.682092 0.2055604 255.0 0.0 0.0
0.9742364 0.6683932 0.197087 0.0 0.0 0.0
1.032014 1.508616 -0.1855 0.0 0.0 0.0
-0.3697756 0.655459 -0.1215706 0.0 0.0 0.0
-2.316451 0.8660254 -0.656 0.0 0.0 0.0
1.507004 1.665439 -2.983724e-16 0.0 0.0 0.0
-0.07137604 0.8024497 -0.2385855 0.0 0.0 0.0
-0.9742364 0.6234768 0.1400355 0.0 0.0 0.0
2.316451 1.221096 0.205 255.0 0.0 0.0
2.200895 0.6867582 0.7245 255.0 0.0 0.0
1.205348 1.732051 0.25 0.0 0.0 0.0
-1.089792 1.403827 -0.5175 0.0 0.0 0.0
-1.865342 0.8660254 -1.0 255.0 0.0 0.0
0.9742364 0.7941592 0.269698 0.0 0.0 0.0
-1.205348 0.649519 -0.875 0.0 0.0 0.0
-2.08534 0.8660254 1.0 0.0 0.0 0.0
-1.14757 0.07447819 0.2285 0.0 0.0 0.0
0.9742364 1.434138 -1.110223e-16 255.0 0.0 0.0
0.6691358 0.7019544 0.1636184 0.0 0.0 0.0
-1.14757 0.8660254 -0.914 0.0 0.0 0.0
1.922024 1.682092 0.2055604 255.0 0.0 0.0
-2.316451 1.221096 0.205 0.0 0.0 0.0
0.2919519 1.102303 0.06366023 255.0 0.0 0.0
0.9742364 0.498421 -0.2122365 0.0 0.0 0.0
1.645344 1.299038 0.75 0.0 0.0 0.0
0.3697756 0.8036354 0.2341359 255.0 0.0 0.0
2.316451 1.221096 -0.205 0.0 0.0 0.0
-1.425346 1.732051 0.5 255.0 0.0 0.0
-0.07137604 1.080593 0.1238809 0.0 0.0 0.0
0.9030403 0.5882118 -3.851086e-16 0.0 0.0 0.0
1.922024 1.732051 -5.551115e-16 255.0 0.0 0.0
-0.2167072 0.6917727 0.173772 0.0 0.0 0.0
-0.5256152 0.7481404 -0.2041828 0.0 0.0 0.0
0.5998585 0.7494867 -0.2018508 0.0 0.0 0.0
1.425346 0.8660254 -1.0 255.0 0.0 0.0
1.368664 1.715398 0.2055604 0.0 0.0 0.0
1.032014 0.2234346 -0.1855 0.0 0.0 0.0
0.3697756 0.6944528 -0.1710993 0.0 0.0 0.0
-2.08534 7.771561e-16 -0.5 0.0 0.0 0.0
-0.07137604 0.9892033 0.2133504 0.0 0.0 0.0
-1.645344 4.440892e-16 0.5 0.0 0.0 0.0
2.258673 0.54473 0.5565 0.0 0.0 0.0
-1.922024 1.665439 -0.2055604 0.0 0.0 0.0
1.922024 1.665439 -0.2055604 255.0 0.0 0.0
0.5256152 0.6606773 -0.1185578 0.0 0.0 0.0
0.9742364 0.460535 -0.110618 0.0 0.0 0.0
1.089792 0.6867582 -0.7245 0.0 0.0 0.0
0.2167072 1.103643 0.06402126 255.0 0.0 0.0
0.9742364 1.357292 -1.595946e-16 255.0 0.0 0.0
1.089792 0.1489564 -6.557255e-16 0.0 0.0 0.0
-0.2167072 0.6521698 0.1234696 0.0 0.0 0.0
2.200895 0.5074909 0.621 0.0 0.0 0.0
0.9742364 1.201301 -0.09033325 255.0 0.0 0.0
-1.032014 0.3840823 0.46375 0.0 0.0 0.0
0.9742364 0.7766187 -0.3355235 255.0 0.0 0.0
1.645344 0.4330127 -0.75 255.0 0.0 0.0
0.9742364 1.135524 0.072611 255.0 0.0 0.0
2.258673 1.187321 0.5565 255.0 0.0 0.0
-2.316451 1.29211 -0.41 0.0 0.0 0.0
-0.4482921 0.6272095 1.301043e-18 0.0 0.0 0.0
0.2167072 0.8026608 -0.2377933 0.0 0.0 0.0
-1.922024 1.715398 0.4111208 0.0 0.0 0.0
-0.07137604 0.6276165 0.06423454 0.0 0.0 0.0
-2.316451 1.008054 -0.574 0.0 0.0 0.0
-0.8595865 0.8070951 0.2211524 0.0 0.0 0.0
0.2167072 0.8660254 -0.2469392 0.0 0.0 0.0
1.205348 0.8660254 -1.0 0.0 0.0 0.0
2.08534 0.649519 0.875 255.0 0.0 0.0
-0.5256152 0.6378608 -0.06147441 0.0 0.0 0.0
-0.2919519 0.6927553 -0.1727921 0.0 0.0 0.0
-0.5256152 0.6606773 0.1185578 0.0 0.0 0.0
0.9742364 1.039251 -0.3000354 255.0 0.0 0.0
-1.645344 0.4330127 0.75 0.0 0.0 0.0
-1.645344 1.515544 0.625 0.0 0.0 0.0
2.143117 1.261799 -0.6855 0.0 0.0 0.0
-0.8597772 0.7422135 -0.2144485 255.0 0.0 0.0
2.258673 0.3840823 -0.46375 0.0 0.0 0.0
-0.4482921 0.8043955 0.2312833 255.0 0.0 0.0
1.089792 0.1489564 0.414 0.0 0.0 0.0
0.2167072 0.8026608 0.2377933 255.0 0.0 0.0
0.5256152 0.9839104 -0.2041828 0.0 0.0 0.0
-2.316451 0.2979127 -0.328 0.0 0.0 0.0
0.9742364 1.150082 -0.492 0.0 0.0 0.0
2.316451 0.7062437 -0.27675 0.0 0.0 0.0
0.8614929 0.8660254 -0.264802 255.0 0.0 0.0
0.6691358 0.8063632 0.2238989 0.0 0.0 0.0
-0.5256152 0.6987047 0.1668591 255.0 0.0 0.0
2.200895 1.045293 0.7245 255.0 0.0 0.0
2.258673 0.2234346 -0.1855 0.0 0.0 0.0
0.6691358 0.8063632 -0.2238989 255.0 0.0 0.0
8.595555e-16 0.6514848 -0.1238651 0.0 0.0 0.0
-2.003682 1.732051 0.4555604 0.0 0.0 0.0
8.812395e-16 1.040836 -0.1743286 0.0 0.0 0.0
-0.3697756 0.6944528 0.1710993 0.0 0.0 0.0
-0.1433969 0.8660254 0.2475878 0.0 0.0 0.0
-1.783684 1.732051 -0.4111208 0.0 0.0 0.0
1.425346 0.4330127 -0.75 0.0 0.0 0.0
-1.645344 1.082532 -0.875 255.0 0.0 0.0
0.2919519 0.7439488 0.2114429 255.0 0.0 0.0
1.865342 1.515544 0.625 0.0 0.0 0.0
-1.44576 1.732051 -0.4777802 0.0 0.0 0.0
-0.2167072 0.8660254 -0.2469392 0.0 0.0 0.0
-0.5998585 0.7006157 0.1649534 255.0 0.0 0.0
0.3697756 1.037598 0.1710993 255.0 0.0 0.0
-0.9742364 0.5642777 -0.1742141 255.0 0.0 0.0
1.645344 1.732051 -0.4777802 255.0 0.0 0.0
-0.9742364 1.150082 -0.492 0.0 0.0 0.0
0.5256152 0.7481404 -0.2041828 0.0 0.0 0.0
-0.4482921 0.9276553 0.2312833 255.0 0.0 0.0
1.645344 1.732051 0.4111208 0.0 0.0 0.0
0.5998585 0.6630226 0.1172037 0.0 0.0 0.0
-0.9742364 1.22612 -0.3516468 255.0 0.0 0.0
1.507004 1.682092 0.4111208 0.0 0.0 0.0
-2.143117 1.459686 0.57125 0.0 0.0 0.0
-1.205348 0.2165063 -0.625 0.0 0.0 0.0
0.1433969 0.9891168 0.2132006 255.0 0.0 0.0
-1.205348 5.273559e-16 0.25 0.0 0.0 0.0
0.1433969 0.7429339 -0.2132006 0.0 0.0 0.0
-1.205348 1.732051 0.25 255.0 0.0 0.0
-0.9030403 1.063183 -0.1966141 255.0 0.0 0.0
2.316451 0.8660254 -0.656 0.0 0.0 0.0
1.425346 1.515544 0.625 0.0 0.0 0.0
-2.316451 1.025807 0.27675 0.0 0.0 0.0
-2.316451 0.2979127 0.328 255.0 0.0 0.0
-0.9742364 1.434138 -0.328 0.0 0.0 0.0
0.9742364 0.7415377 -0.4876745 255.0 0.0 0.0
2.316451 1.434138 0.164 255.0 0.0 0.0
2.258673 1.508616 0.1855 255.0 0.0 0.0
1.089792 1.22456 -0.621 0.0 0.0 0.0
2.200895 0.8660254 0.828 255.0 0.0 0.0
-1.507004 1.665439 -0.2055604 0.0 0.0 0.0
0.3697756 0.9869061 0.2093716 255.0 0.0 0.0
0.1433969 1.112208 8.326673e-17 255.0 0.0 0.0
-0.9742364 1.150082 0.492 0.0 0.0 0.0
2.258673 1.026673 -0.64925 0.0 0.0 0.0
-0.3697756 0.7451447 0.2093716 255.0 0.0 0.0
1.645344 6.661338e-16 -0.5 0.0 0.0 0.0
0.1433969 0.6198425 -1.335737e-16 0.0 0.0 0.0
-0.7977583 0.644382 -0.05971741 0.0 0.0 0.0
1.507004 1.665439 0.2055604 0.0 0.0 0.0
-0.9742364 1.201301 0.09033325 0.0 0.0 0.0
1.14757 1.261799 -0.6855 0.0 0.0 0.0
-0.9742364 1.063658 -0.197087 255.0 0.0 0.0
-2.258673 0.2234346 -0.1855 0.0 0.0 0.0
1.14757 0.07447819 -0.2285 0.0 0.0 0.0
-0.1433969 0.9295565 0.2384179 0.0 0.0 0.0
-0.2167072 0.8660254 0.2469392 0.0 0.0 0.0
-0.8595865 0.6450367 -0.05954102 0.0 0.0 0.0
-0.5256152 0.7481404 0.2041828 255.0 0.0 0.0
-0.9742364 0.6201569 -0.2451902 255.0 0.0 0.0
2.316451 0.7239972 0.574 255.0 0.0 0.0
-1.962853 1.732051 0.2166703 0.0 0.0 0.0
-1.922024 1.665439 0.2055604 0.0 0.0 0.0
-1.14757 0.07447819 0.457 0.0 0.0 0.0
-1.368664 1.665439 -0.4111208 0.0 0.0 0.0
-0.5998585 0.6329482 4.77049e-17 0.0 0.0 0.0
-0.07137604 1.112381 1.353084e-16 0.0 0.0 0.0
-0.2919519 1.102303 -0.06366023 0.0 0.0 0.0
0.4482921 0.6965432 -0.1690147 0.0 0.0 0.0
2.258673 0.54473 -0.5565 0.0 0.0 0.0
-0.7977583 0.7034869 -0.1620901 255.0 0.0 0.0
-1.865342 5.273559e-16 0.25 255.0 0.0 0.0
-1.205348 0.4330127 -0.75 0.0 0.0 0.0
-1.425346 0.4330127 0.75 0.0 0.0 0.0
-1.089792 1.403827 0.5175 255.0 0.0 0.0
2.044511 1.732051 0.4777802 0.0 0.0 0.0
-1.865342 0.4330127 0.75 255.0 0.0 0.0
-1.14757 1.657573 -0.457 0.0 0.0 0.0
-0.9742364 0.3814431 -0.1360278 0.0 0.0 0.0
2.08534 1.515544 0.625 0.0 0.0 0.0
-0.8743778 1.141166 2.706169e-16 255.0 0.0 0.0
-2.200895 0.1489564 -0.207 0.0 0.0 0.0
0.8595865 0.9249557 0.2211524 0.0 0.0 0.0
-2.143117 1.657573 -0.457 0.0 0.0 0.0
0.2167072 0.6521698 -0.1234696 0.0 0.0 0.0
-0.7977583 0.644382 0.05971741 0.0 0.0 0.0
-1.287006 1.732051 0.4555604 255.0 0.0 0.0
-0.5256152 0.8660254 0.2371156 255.0 0.0 0.0
9.046583e-16 0.7428632 0.2133231 0.0 0.0 0.0
0.9030403 1.004932 0.2405936 0.0 0.0 0.0
0.2167072 1.111563 5.89806e-17 255.0 0.0 0.0
-2.316451 1.150082 0.492 0.0 0.0 0.0
-0.5256152 1.033346 -0.1668591 0.0 0.0 0.0
0.5256152 0.8660254 -0.2371156 0.0 0.0 0.0
1.032014 0.2234346 0.1855 0.0 0.0 0.0
-1.14757 0.272365 -0.57125 0.0 0.0 0.0
-2.143117 0.272365 -0.57125 0.0 0.0 0.0
1.032014 0.54473 0.5565 0.0 0.0 0.0
0.9742364 1.005266 0.2411723 0.0 0.0 0.0
-2.316451 0.2979127 0.164 255.0 0.0 0.0
-2.08534 1.515544 -0.625 0.0 0.0 0.0
-1.089792 0.3282236 0.5175 0.0 0.0 0.0
-0.4482921 1.097138 -0.06226858 0.0 0.0 0.0
0.9742364 1.008054 0.574 0.0 0.0 0.0
-1.14757 0.07447819 -0.2285 0.0 0.0 0.0
-0.7346886 1.066269 -0.1156109 255.0 0.0 0.0
-1.14757 0.07447819 -0.457 0.0 0.0 0.0
-0.9742364 0.8660254 0.656 0.0 0.0 0.0
0.1433969 0.8024943 -0.2384179 0.0 0.0 0.0
0.2919519 0.9290327 -0.2364523 0.0 0.0 0.0
1.246176 1.732051 0.4777802 0.0 0.0 0.0
2.143117 1.657573 -0.457 255.0 0.0 0.0
-1.032014 0.8660254 0.742 0.0 0.0 0.0
-0.2167072 0.6284081 0.06402126 0.0 0.0 0.0
-1.425346 1.082532 0.875 0.0 0.0 0.0
-0.3697756 1.099988 -0.0630366 0.0 0.0 0.0
-1.645344 1.732051 0.4111208 0.0 0.0 0.0
-1.368664 1.732051 0.4111208 255.0 0.0 0.0
0.2919519 0.9290327 0.2364523 255.0 0.0 0.0
1.089792 1.583094 -0.207 255.0 0.0 0.0
1.645344 1.082532 0.875 0.0 0.0 0.0
-0.9742364 1.201301 -0.09033325 255.0 0.0 0.0
1.205348 1.732051 -1.665335e-16 0.0 0.0 0.0
0.1433969 0.6913149 0.1742285 0.0 0.0 0.0
-2.258673 1.347969 0.46375 0.0 0.0 0.0
0.7346886 0.9253569 0.2226579 0.0 0.0 0.0
0.6691358 1.067385 0.1162552 0.0 0.0 0.0
1.205348 1.299038 0.75 0.0 0.0 0.0
-0.9742364 1.167773 -0.1742141 255.0 0.0 0.0
0.8595865 0.8070951 0.2211524 0.0 0.0 0.0
0.07137604 0.6196696 -1.179612e-16 0.0 0.0 0.0
8.951173e-16 1.104404 -0.06422632 0.0 0.0 0.0
2.316451 1.185589 -8.465451e-16 0.0 0.0 0.0
-0.2919519 0.6533758 0.1227733 0.0 0.0 0.0
-1.645344 1.082532 0.875 0.0 0.0 0.0
0.9742364 1.111659 0.4254493 0.0 0.0 0.0
-1.205348 6.938894e-16 -0.25 0.0 0.0 0.0
-0.8595865 0.703967 -0.1616113 255.0 0.0 0.0
-0.9742364 1.005266 -0.2411723 255.0 0.0 0.0
0.9742364 0.8660254 0.280071 0.0 0.0 0.0
-0.8858888 1.062472 0.1959048 0.0 0.0 0.0
1.205348 6.383782e-16 -0.25 0.0 0.0 0.0
0.7346886 1.088519 -0.05994637 255.0 0.0 0.0
-1.089792 0.1489564 -0.207 0.0 0.0 0.0
-1.645344 6.106227e-16 -1.665335e-16 0.0 0.0 0.0
1.645344 0.4330127 0.75 0.0 0.0 0.0
0.9742364 1.063658 -0.197087 255.0 0.0 0.0
1.507004 1.732051 -0.4111208 255.0 0.0 0.0
0.6691358 0.6422921 -0.06028047 0.0 0.0 0.0
-0.7977583 0.6665463 0.1151693 0.0 0.0 0.0
0.07137604 1.080593 -0.1238809 0.0 0.0 0.0
2.258673 1.508616 -0.371 0.0 0.0 0.0
-2.200895 0.3282236 -0.5175 0.0 0.0 0.0
-2.200895 1.583094 0.414 0.0 0.0 0.0
2.143117 0.8660254 0.914 255.0 0.0 0.0
0.07137604 0.7428474 0.2133504 0.0 0.0 0.0
-1.507004 1.682092 -0.4111208 0.0 0.0 0.0
2.044511 1.732051 -0.4777802 255.0 0.0 0.0
-1.645344 1.665439 4.996004e-16 0.0 0.0 0.0
2.08534 0.0 0.5 0.0 0.0 0.0
-0.9742364 1.271516 -0.110618 255.0 0.0 0.0
-1.205348 1.732051 -0.5 0.0 0.0 0.0
0.8614929 0.6112196 -0.06865237 0.0 0.0 0.0
0.8595865 0.6376704 -4.38885e-16 0.0 0.0 0.0
1.089792 0.3282236 -0.5175 0.0 0.0 0.0
1.368664 1.665439 -0.2055604 255.0 0.0 0.0
-0.9030403 0.7271186 -0.2405936 255.0 0.0 0.0
1.425346 0.649519 -0.875 255.0 0.0 0.0
-0.7346886 0.6657816 -0.1156109 0.0 0.0 0.0
-0.5256152 0.8051815 -0.2283335 0.0 0.0 0.0
0.1433969 0.8660254 -0.2475878 0.0 0.0 0.0
0.1433969 1.104267 0.06418944 255.0 0.0 0.0
-0.3697756 0.8036354 0.2341359 255.0 0.0 0.0
-1.032014 0.2234346 -0.1855 0.0 0.0 0.0
-0.6691358 0.6646655 0.1162552 0.0 0.0 0.0
0.9742364 1.135524 -0.072611 255.0 0.0 0.0
0.9742364 0.7766187 0.3355235 0.0 0.0 0.0
2.08534 5.551115e-16 -0.5 0.0 0.0 0.0
-0.2919519 1.102303 0.06366023 0.0 0.0 0.0
-2.258673 0.54473 0.5565 255.0 0.0 0.0
0.9742364 0.5819691 0.492 0.0 0.0 0.0
-0.7346886 0.7510706 0.1991076 255.0 0.0 0.0
0.5256152 0.9268693 -0.2283335 0.0 0.0 0.0
0.3697756 0.6242639 -1.804112e-16 0.0 0.0 0.0
0.9742364 0.7267845 -0.2411723 255.0 0.0 0.0
2.08534 1.299038 0.75 255.0 0.0 0.0
-0.5998585 1.091584 -0.06077229 0.0 0.0 0.0
0.9742364 0.2979127 0.164 0.0 0.0 0.0
-0.7346886 1.095935 1.717376e-16 255.0 0.0 0.0
0.4482921 1.097138 -0.06226858 0.0 0.0 0.0
-0.5256152 0.8660254 -0.2371156 0.0 0.0 0.0
-1.089792 0.3282236 -0.5175 0.0 0.0 0.0
1.865342 0.8660254 -1.0 255.0 0.0 0.0
0.1433969 0.6277839 -0.06418944 0.0 0.0 0.0
2.143117 1.261799 0.6855 255.0 0.0 0.0
2.143117 0.6681386 0.79975 255.0 0.0 0.0
0.2167072 1.040278 0.173772 255.0 0.0 0.0
1.089792 1.583094 0.207 0.0 0.0 0.0
0.9742364 1.108574 -0.1400355 255.0 0.0 0.0
-2.08534 0.4330127 0.75 255.0 0.0 0.0
-0.8633994 0.9353588 -0.2601928 255.0 0.0 0.0
-0.1433969 0.6277839 0.06418944 0.0 0.0 0.0
-0.8595865 0.703967 0.1616113 0.0 0.0 0.0
-1.089792 1.22456 -0.621 0.0 0.0 0.0
-0.2167072 0.6204875 -6.591949e-17 0.0 0.0 0.0
0.07137604 0.9296011 0.2385855 255.0 0.0 0.0
0.9742364 1.23363 0.2122365 0.0 0.0 0.0
8.812395e-16 0.627647 0.06422632 0.0 0.0 0.0
0.3697756 1.076592 -0.1215706 0.0 0.0 0.0
-2.143117 1.657573 -0.2285 0.0 0.0 0.0
1.645344 1.665439 -0.2055604 255.0 0.0 0.0
-0.1433969 0.651608 0.1237939 0.0 0.0 0.0
-2.08534 0.8660254 -1.0 0.0 0.0 0.0
0.8595865 0.703967 0.1616113 0.0 0.0 0.0
1.089792 1.583094 -1.422473e-16 0.0 0.0 0.0
0.5256152 0.9268693 0.2283335 0.0 0.0 0.0
-0.2919519 1.039295 0.1727921 0.0 0.0 0.0
1.032014 1.026673 0.64925 0.0 0.0 0.0
1.032014 1.026673 -0.64925 0.0 0.0 0.0
1.865342 0.2165063 -0.625 0.0 0.0 0.0
0.5256152 1.09419 0.06147441 0.0 0.0 0.0
-0.8743778 0.6263866 -0.1383555 255.0 0.0 0.0
-0.1433969 0.7429339 -0.2132006 0.0 0.0 0.0
-1.645344 1.682092 -0.4111208 0.0 0.0 0.0
-2.143117 1.261799 -0.6855 0.0 0.0 0.0
0.4482921 0.9854333 -0.2068206 0.0 0.0 0.0
2.08534 0.8660254 -1.0 0.0 0.0 0.0
-1.032014 0.2234346 -0.371 0.0 0.0 0.0
1.14757 1.657573 0.457 0.0 0.0 0.0
-1.032014 0.7053777 -0.64925 0.0 0.0 0.0
1.14757 1.657573 -1.526557e-16 0.0 0.0 0.0
1.645344 3.885781e-16 -9.402201e-16 0.0 0.0 0.0
1.865342 1.732051 0.5 0.0 0.0 0.0
-2.08534 6.938894e-16 -0.25 0.0 0.0 0.0
-1.865342 1.082532 -0.875 255.0 0.0 0.0
2.258673 0.8660254 0.742 255.0 0.0 0.0
-0.2919519 0.8660254 0.2455466 0.0 0.0 0.0
2.258673 1.508616 -0.1855 0.0 0.0 0.0
-0.2167072 1.040278 -0.173772 0.0 0.0 0.0
-1.205348 1.299038 -0.75 0.0 0.0 0.0
-0.4482921 1.035508 -0.1690147 0.0 0.0 0.0
0.2919519 1.102303 -0.06366023 0.0 0.0 0.0
-0.9742364 1.167773 0.1742141 0.0 0.0 0.0
2.143117 1.063912 -0.79975 0.0 0.0 0.0
0.9742364 0.3747588 -5.20417e-16 0.0 0.0 0.0
0.4482921 0.8660254 0.2401788 0.0 0.0 0.0
-0.9742364 0.460535 0.110618 0.0 0.0 0.0
0.2167072 1.103643 -0.06402126 255.0 0.0 0.0
-0.9742364 0.3747588 0.0 0.0 0.0 0.0
-0.9742364 0.7590782 -0.406474 255.0 0.0 0.0
0.8597772 0.9898373 -0.2144485 255.0 0.0 0.0
-1.865342 1.515544 0.625 0.0 0.0 0.0
1.205348 0.8660254 1.0 0.0 0.0 0.0
0.9742364 0.8660254 0.656 0.0 0.0 0.0
0.7346886 0.9809802 0.1991076 0.0 0.0 0.0
-1.287006 1.732051 4.926615e-16 0.0 0.0 0.0
-0.07137604 1.080593 -0.1238809 0.0 0.0 0.0
-1.962853 1.732051 4.996004e-16 0.0 0.0 0.0
-0.2919519 0.8030181 0.2364523 0.0 0.0 0.0
1.368664 1.732051 -1.94289e-16 0.0 0.0 0.0
0.9742364 1.164569 -0.295856 0.0 0.0 0.0
0.6691358 0.7019544 -0.1636184 0.0 0.0 0.0
-1.205348 0.8660254 -1.0 0.0 0.0 0.0
-1.507004 1.665439 0.2055604 255.0 0.0 0.0
-0.9742364 1.357292 2.983724e-16 0.0 0.0 0.0
1.804098 1.732051 0.4333406 0.0 0.0 0.0
0.7346886 0.6435322 0.05994637 0.0 0.0 0.0
1.205348 0.649519 -0.875 0.0 0.0 0.0
2.258673 1.508616 -7.077672e-16 255.0 0.0 0.0
2.003682 1.732051 -0.2277802 255.0 0.0 0.0
0.9030403 0.6688674 -0.1966141 0.0 0.0 0.0
-0.9742364 1.350608 0.1360278 0.0 0.0 0.0
-0.7977583 0.9805412 -0.1983471 255.0 0.0 0.0
-1.922024 1.698745 4.961309e-16 0.0 0.0 0.0
-0.2919519 0.9290327 0.2364523 0.0 0.0 0.0
-0.5998585 1.069028 0.1172037 255.0 0.0 0.0
-2.316451 0.4399409 -0.41 0.0 0.0 0.0
0.1433969 0.9891168 -0.2132006 0.0 0.0 0.0
0.9742364 0.7941592 -0.269698 255.0 0.0 0.0
1.865342 0.649519 0.875 255.0 0.0 0.0
-0.4482921 0.6580244 0.1200894 0.0 0.0 0.0
-2.143117 0.07447819 -0.2285 0.0 0.0 0.0
0.07137604 0.9892033 0.2133504 255.0 0.0 0.0
-0.7977583 1.028564 -0.1620901 255.0 0.0 0.0
0.8595865 0.8070951 -0.2211524 255.0 0.0 0.0
-0.9742364 0.2979127 0.0 0.0 0.0 0.0
-0.9742364 1.039251 -0.3000354 255.0 0.0 0.0
2.143117 0.07447819 -0.2285 0.0 0.0 0.0
2.143117 0.272365 -0.57125 0.0 0.0 0.0
-0.9030403 0.7943316 -0.2690509 255.0 0.0 0.0
-0.6691358 1.067385 -0.1162552 0.0 0.0 0.0
-1.14757 0.6681386 0.79975 0.0 0.0 0.0
-1.466174 1.732051 0.4555604 255.0 0.0 0.0
1.287006 1.732051 -0.4555604 255.0 0.0 0.0
-1.14757 1.657573 0.457 255.0 0.0 0.0
-0.9742364 1.039251 0.3000354 0.0 0.0 0.0
-0.9742364 0.8660254 0.5158927 0.0 0.0 0.0
-0.8858888 0.6695787 0.1959048 0.0 0.0 0.0
1.089792 0.1489564 -0.207 0.0 0.0 0.0
2.258673 0.2234346 0.371 0.0 0.0 0.0
-0.5256152 0.6378608 0.06147441 0.0 0.0 0.0
1.089792 0.1489564 -0.414 0.0 0.0 0.0
0.4482921 0.6965432 0.1690147 0.0 0.0 0.0
-0.7977583 1.065504 0.1151693 0.0 0.0 0.0
0.7346886 0.8066939 0.2226579 0.0 0.0 0.0
-0.3697756 0.8660254 -0.2431412 0.0 0.0 0.0
-0.4482921 0.6580244 -0.1200894 0.0 0.0 0.0
2.200895 1.045293 -0.7245 0.0 0.0 0.0
-1.032014 0.2234346 0.1855 0.0 0.0 0.0
-0.1433969 1.040736 -0.1742285 0.0 0.0 0.0
0.7977583 0.9805412 -0.1983471 255.0 0.0 0.0
-0.5998585 1.091584 0.06077229 255.0 0.0 0.0
-1.205348 0.8660254 1.0 0.0 0.0 0.0
0.9742364 0.2979127 -0.164 0.0 0.0 0.0
0.9742364 0.5642777 -0.1742141 0.0 0.0 0.0
-1.425346 0.2165063 -0.625 0.0 0.0 0.0
0.9742364 0.7415377 0.4876745 0.0 0.0 0.0
-1.089792 1.045293 -0.7245 0.0 0.0 0.0
-0.9742364 0.8660254 0.3484282 0.0 0.0 0.0
0.1433969 0.8024943 0.2384179 255.0 0.0 0.0
0.7346886 0.7028638 -0.1627116 255.0 0.0 0.0
1.032014 0.8660254 -0.742 0.0 0.0 0.0
1.368664 1.682092 -2.012279e-16 0.0 0.0 0.0
-1.645344 6.938894e-16 -0.25 0.0 0.0 0.0
-0.07137604 0.7428474 0.2133504 0.0 0.0 0.0
0.7977583 0.8069205 0.2218075 0.0 0.0 0.0
1.032014 1.508616 0.1855 0.0 0.0 0.0
-1.14757 0.4702518 -0.6855 0.0 0.0 0.0
0.9742364 0.4192492 0.2579464 0.0 0.0 0.0
-0.9742364 0.4399409 -0.41 0.0 0.0 0.0
-0.07137604 0.6196696 -9.020562e-17 0.0 0.0 0.0
2.143117 1.657573 -6.383782e-16 255.0 0.0 0.0
0.6691358 0.9816209 0.2002173 0.0 0.0 0.0
0.9742364 1.434138 -0.328 0.0 0.0 0.0
0.2919519 0.988102 -0.2114429 0.0 0.0 0.0
0.9742364 0.5307502 0.09033325 0.0 0.0 0.0
-0.9742364 0.6203921 0.4254493 0.0 0.0 0.0
0.2919519 1.039295 0.1727921 255.0 0.0 0.0
1.032014 1.187321 0.5565 0.0 0.0 0.0
-0.9742364 1.22612 0.3516468 0.0 0.0 0.0
-0.5998585 0.9261744 -0.2257257 0.0 0.0 0.0
-0.8595865 0.8660254 -0.2296582 255.0 0.0 0.0
-0.2167072 0.9887943 0.212642 0.0 0.0 0.0
-0.9742364 1.135524 0.072611 0.0 0.0 0.0
1.14757 1.459686 0.57125 0.0 0.0 0.0
-0.7977583 0.7515097 -0.1983471 255.0 0.0 0.0
-0.7977583 0.9251303 0.2218075 0.0 0.0 0.0
-1.032014 1.347969 -0.46375 0.0 0.0 0.0
0.4482921 1.097138 0.06226858 0.0 0.0 0.0
-0.2919519 0.6218722 -4.510281e-17 0.0 0.0 0.0
-0.6691358 1.030096 -0.1636184 0.0 0.0 0.0
-1.368664 1.732051 4.996004e-16 0.0 0.0 0.0
-0.6691358 0.7504299 -0.2002173 0.0 0.0 0.0
0.6691358 0.8660254 0.2325104 0.0 0.0 0.0
0.5256152 1.033346 0.1668591 0.0 0.0 0.0
0.9742364 1.434138 0.328 0.0 0.0 0.0
-0.6691358 0.9816209 -0.2002173 0.0 0.0 0.0
0.9742364 0.8660254 0.3484282 0.0 0.0 0.0
1.865342 5.551115e-17 0.5 0.0 0.0 0.0
0.9742364 0.5307502 -0.09033325 0.0 0.0 0.0
0.8743778 0.728455 0.2382789 0.0 0.0 0.0
-0.07137604 0.8660254 0.2477618 0.0 0.0 0.0
-0.4482921 1.035508 0.1690147 255.0 0.0 0.0
-0.7977583 0.8069205 -0.2218075 255.0 0.0 0.0
-1.922024 1.665439 0.4111208 0.0 0.0 0.0
-1.032014 1.187321 0.5565 0.0 0.0 0.0
0.9742364 1.282665 -1.977585e-16 255.0 0.0 0.0
1.089792 1.583094 -0.414 255.0 0.0 0.0
-0.3697756 1.037598 0.1710993 0.0 0.0 0.0
0.9742364 0.4399409 -0.41 0.0 0.0 0.0
-2.316451 1.025807 -0.27675 0.0 0.0 0.0
-2.258673 0.8660254 0.742 0.0 0.0 0.0
-0.9742364 0.5307502 0.09033325 0.0 0.0 0.0
-0.9742364 1.312802 -0.2579464 0.0 0.0 0.0
0.1433969 0.9295565 -0.2384179 0.0 0.0 0.0
0.7977583 0.8660254 0.2303386 0.0 0.0 0.0
-1.645344 0.649519 0.875 0.0 0.0 0.0
-0.9742364 0.6577056 -0.3608205 255.0 0.0 0.0
-1.287006 1.732051 -0.4555604 0.0 0.0 0.0
1.645344 0.649519 0.875 0.0 0.0 0.0
-2.143117 0.6681386 -0.79975 0.0 0.0 0.0
0.7977583 0.8660254 -0.2303386 255.0 0.0 0.0
-0.5256152 0.6302553 2.602085e-17 0.0 0.0 0.0
0.9742364 1.312802 -0.2579464 0.0 0.0 0.0
-0.9742364 0.7766187 -0.3355235 255.0 0.0 0.0
0.7977583 0.644382 -0.05971741 0.0 0.0 0.0
-0.9742364 0.5674822 0.295856 0.0 0.0 0.0
-2.143117 0.8660254 -0.914 0.0 0.0 0.0
0.2919519 0.6927553 -0.1727921 0.0 0.0 0.0
-0.2919519 0.9290327 -0.2364523 0.0 0.0 0.0
0.6691358 0.9816209 -0.2002173 255.0 0.0 0.0
-0.9742364 0.7590782 0.406474 0.0 0.0 0.0
0.7346886 1.095935 -1.682682e-16 255.0 0.0 0.0
-0.6691358 0.6646655 -0.1162552 0.0 0.0 0.0
-0.9742364 1.008054 -0.574 0.0 0.0 0.0
0.5998585 1.031435 0.1649534 0.0 0.0 0.0
1.783684 1.665439 0.2055604 0.0 0.0 0.0
-1.645344 1.665439 0.4111208 0.0 0.0 0.0
1.368664 1.715398 -0.2055604 255.0 0.0 0.0
-1.032014 1.508616 0.371 255.0 0.0 0.0
1.032014 0.8660254 0.742 0.0 0.0 0.0
0.7977583 0.6665463 0.1151693 0.0 0.0 0.0
-0.5256152 0.9268693 -0.2283335 0.0 0.0 0.0
2.316451 0.4399409 -0.41 0.0 0.0 0.0
0.3697756 0.9284155 0.2341359 255.0 0.0 0.0
2.316451 0.7062437 0.27675 0.0 0.0 0.0
-0.7346886 1.029187 0.1627116 255.0 0.0 0.0
0.9742364 1.212476 -2.393918e-16 255.0 0.0 0.0
-0.4482921 0.6349133 -0.06226858 0.0 0.0 0.0
-0.9742364 1.063658 0.197087 0.0 0.0 0.0
1.507004 1.665439 -0.4111208 255.0 0.0 0.0
-0.9742364 1.111894 0.2451902 0.0 0.0 0.0
-0.9742364 0.4192492 0.2579464 0.0 0.0 0.0
-0.5998585 0.6630226 -0.1172037 0.0 0.0 0.0
1.922024 1.732051 0.2055604 255.0 0.0 0.0
-0.9742364 1.282665 2.862294e-16 0.0 0.0 0.0
-1.14757 1.063912 -0.79975 0.0 0.0 0.0
-0.4482921 0.6349133 0.06226858 0.0 0.0 0.0
-0.9742364 1.434138 0.164 0.0 0.0 0.0
-0.1433969 0.6913149 0.1742285 0.0 0.0 0.0
1.844927 1.732051 -0.4777802 255.0 0.0 0.0
-2.08534 1.732051 0.25 0.0 0.0 0.0
0.5256152 0.6987047 0.1668591 0.0 0.0 0.0
-0.07137604 0.7428474 -0.2133504 0.0 0.0 0.0
-0.9742364 1.111894 -0.2451902 255.0 0.0 0.0
-0.7977583 1.065504 -0.1151693 255.0 0.0 0.0
-1.368664 1.682092 -0.2055604 0.0 0.0 0.0
1.032014 0.2234346 -0.371 0.0 0.0 0.0
0.6691358 1.030096 0.1636184 0.0 0.0 0.0
0.9742364 0.6201569 0.2451902 0.0 0.0 0.0
-0.7346886 0.8066939 0.2226579 255.0 0.0 0.0
2.08534 1.732051 0.25 255.0 0.0 0.0
-0.3697756 1.107787 1.769418e-16 0.0 0.0 0.0
9.124645e-16 1.104404 0.06422632 0.0 0.0 0.0
-1.865342 0.2165063 0.625 255.0 0.0 0.0
1.865342 6.106227e-16 -0.5 0.0 0.0 0.0
2.316451 0.8660254 0.41 255.0 0.0 0.0
0.7977583 0.7034869 0.1620901 0.0 0.0 0.0
0.2167072 0.92939 -0.2377933 0.0 0.0 0.0
-0.9742364 1.212476 2.775558e-16 0.0 0.0 0.0
1.425346 7.21645e-16 -0.5 0.0 0.0 0.0
0.9742364 0.9905131 -0.4876745 0.0 0.0 0.0
-1.425346 6.106227e-16 -1.665335e-16 0.0 0.0 0.0
0.9742364 0.5059307 0.3516468 0.0 0.0 0.0
-0.3697756 0.9284155 0.2341359 255.0 0.0 0.0
0.4482921 0.6272095 -1.946143e-16 0.0 0.0 0.0
0.1433969 0.7429339 0.2132006 0.0 0.0 0.0
-0.07137604 0.9296011 -0.2385855 0.0 0.0 0.0
-1.645344 1.515544 -0.625 0.0 0.0 0.0
-0.3697756 1.076592 0.1215706 0.0 0.0 0.0
0.4482921 0.9276553 0.2312833 0.0 0.0 0.0
-0.7346886 1.029187 -0.1627116 255.0 0.0 0.0
0.7977583 0.644382 0.05971741 0.0 0.0 0.0
-2.316451 0.7062437 0.27675 255.0 0.0 0.0
0.7346886 0.8066939 -0.2226579 255.0 0.0 0.0
1.032014 1.508616 -0.371 0.0 0.0 0.0
-0.9742364 0.7267845 0.2411723 0.0 0.0 0.0
0.9742364 0.4399409 0.41 0.0 0.0 0.0
0.7977583 0.7515097 0.1983471 0.0 0.0 0.0
1.865342 1.94289e-16 0.25 0.0 0.0 0.0
1.645344 1.515544 -0.625 255.0 0.0 0.0
0.5256152 0.6378608 -0.06147441 0.0 0.0 0.0
-2.08534 0.2165063 -0.625 0.0 0.0 0.0
2.200895 0.1489564 0.207 0.0 0.0 0.0
-2.200895 1.22456 0.621 0.0 0.0 0.0
0.9742364 0.5059307 -0.3516468 0.0 0.0 0.0
-0.2919519 1.110179 1.82146e-16 0.0 0.0 0.0
2.316451 1.434138 -7.494005e-16 0.0 0.0 0.0
-0.7346886 0.6657816 0.1156109 0.0 0.0 0.0
-0.9742364 1.005266 0.2411723 0.0 0.0 0.0
-0.5998585 1.031435 0.1649534 255.0 0.0 0.0
2.143117 1.657573 -0.2285 0.0 0.0 0.0
0.1433969 0.9295565 0.2384179 255.0 0.0 0.0
2.143117 1.657573 0.457 255.0 0.0 0.0
-0.9742364 1.29211 0.41 0.0 0.0 0.0
2.200895 0.1489564 -0.414 0.0 0.0 0.0
0.2919519 0.6218722 -1.63064e-16 0.0 0.0 0.0
-1.032014 0.7053777 0.64925 0.0 0.0 0.0
-2.08534 5.273559e-16 0.25 255.0 0.0 0.0
2.143117 0.07447819 -1.137979e-15 0.0 0.0 0.0
-2.316451 0.5464621 1.040834e-16 0.0 0.0 0.0
-1.089792 1.22456 0.621 0.0 0.0 0.0
-1.089792 1.583094 0.207 255.0 0.0 0.0
1.922024 1.682092 -0.4111208 255.0 0.0 0.0
0.7346886 0.9809802 -0.1991076 255.0 0.0 0.0
-1.922024 1.732051 -0.2055604 0.0 0.0 0.0
-0.5256152 1.09419 0.06147441 255.0 0.0 0.0
-0.2919519 0.6533758 -0.1227733 0.0 0.0 0.0
0.2167072 0.6284081 0.06402126 0.0 0.0 0.0
1.205348 0.2165063 -0.625 0.0 0.0 0.0
2.003682 1.732051 -5.58581e-16 255.0 0.0 0.0
-0.9742364 0.7415377 0.4876745 0.0 0.0 0.0
-0.9742364 0.7941592 0.269698 0.0 0.0 0.0
0.9742364 0.5674822 -0.295856 0.0 0.0 0.0
-0.9742364 0.8660254 -0.424473 255.0 0.0 0.0
-0.6691358 0.8660254 -0.2325104 0.0 0.0 0.0
0.7346886 0.6361158 -3.295975e-16 0.0 0.0 0.0
-2.258673 0.2234346 0.1855 255.0 0.0 0.0
0.8595865 1.028084 0.1616113 255.0 0.0 0.0
-2.200895 1.045293 -0.7245 0.0 0.0 0.0
-1.032014 0.54473 -0.5565 0.0 0.0 0.0
1.645344 2.498002e-16 0.25 0.0 0.0 0.0
1.14757 0.6681386 0.79975 0.0 0.0 0.0
-0.5256152 1.071373 0.1185578 255.0 0.0 0.0
-0.9742364 1.008054 0.574 0.0 0.0 0.0
-2.200895 0.1489564 0.414 255.0 0.0 0.0
0.07137604 0.6276165 -0.06423454 0.0 0.0 0.0
0.5998585 0.9261744 -0.2257257 0.0 0.0 0.0
0.9742364 1.23363 -0.2122365 0.0 0.0 0.0
0.9742364 0.8660254 0.424473 0.0 0.0 0.0
0.07137604 0.8660254 0.2477618 0.0 0.0 0.0
-2.08534 0.2165063 0.625 255.0 0.0 0.0
-0.2167072 1.103643 -0.06402126 0.0 0.0 0.0
8.951173e-16 0.6912146 0.1743286 0.0 0.0 0.0
0.9742364 0.9554321 -0.3355235 255.0 0.0 0.0
2.258673 1.187321 -0.5565 0.0 0.0 0.0
0.6691358 0.7504299 0.2002173 0.0 0.0 0.0
2.143117 0.272365 0.57125 0.0 0.0 0.0
-0.3697756 0.9869061 0.2093716 255.0 0.0 0.0
0.7977583 1.065504 -0.1151693 255.0 0.0 0.0
-0.9742364 0.5819691 -0.492 255.0 0.0 0.0
-0.9742364 1.108574 0.1400355 0.0 0.0 0.0
1.205348 0.649519 0.875 0.0 0.0 0.0
-0.5256152 0.9268693 0.2283335 255.0 0.0 0.0
0.07137604 0.6911922 0.1743509 0.0 0.0 0.0
-2.143117 1.657573 0.2285 0.0 0.0 0.0
-0.9742364 0.8660254 -0.280071 255.0 0.0 0.0
0.1433969 1.080443 0.1237939 255.0 0.0 0.0
9.168014e-16 1.080566 0.1238651 0.0 0.0 0.0
9.15934e-16 0.8660254 0.2477301 0.0 0.0 0.0
0.7977583 1.065504 0.1151693 255.0 0.0 0.0
-1.865342 1.082532 0.875 0.0 0.0 0.0
-0.1433969 1.104267 -0.06418944 0.0 0.0 0.0
-0.5998585 0.8660254 -0.2344074 0.0 0.0 0.0
2.316451 1.29211 0.41 255.0 0.0 0.0
-0.8595865 1.064915 0.1148291 0.0 0.0 0.0
-2.08534 1.082532 -0.875 0.0 0.0 0.0
0.3697756 1.099988 0.0630366 255.0 0.0 0.0
0.3697756 0.6320627 -0.0630366 0.0 0.0 0.0
-0.5998585 0.7494867 -0.2018508 0.0 0.0 0.0
-0.9742364 0.7239972 -0.574 0.0 0.0 0.0
-0.7977583 0.7034869 0.1620901 0.0 0.0 0.0
0.3697756 1.037598 -0.1710993 0.0 0.0 0.0
1.922024 1.732051 -0.2055604 255.0 0.0 0.0
0.9742364 0.9729726 0.406474 0.0 0.0 0.0
0.9742364 1.164569 0.295856 0.0 0.0 0.0
-0.4482921 1.097138 0.06226858 255.0 0.0 0.0
0.8743778 0.9370295 0.2664624 0.0 0.0 0.0
-0.8595865 0.9802029 -0.1977612 255.0 0.0 0.0
-0.8595865 0.7518479 0.1977613 0.0 0.0 0.0
-1.14757 1.657573 4.440892e-16 0.0 0.0 0.0
1.14757 0.272365 -0.57125 0.0 0.0 0.0
-1.205348 0.2165063 0.625 0.0 0.0 0.0
-0.7346886 0.8066939 -0.2226579 255.0 0.0 0.0
-1.287006 1.732051 -0.2277802 0.0 0.0 0.0
0.9742364 0.5642777 0.1742141 0.0 0.0 0.0
-1.645344 0.649519 -0.875 255.0 0.0 0.0
-0.9742364 0.460535 -0.110618 0.0 0.0 0.0
0.9742364 1.271516 0.110618 255.0 0.0 0.0
-0.5998585 0.9261744 0.2257257 255.0 0.0 0.0
0.2919519 1.078675 -0.1227733 0.0 0.0 0.0
2.200895 1.583094 0.207 255.0 0.0 0.0
-0.9742364 0.6683932 -0.197087 255.0 0.0 0.0
1.645344 1.299038 -0.75 255.0 0.0 0.0
-0.9742364 0.9729726 0.406474 0.0 0.0 0.0
-0.9742364 0.6927999 -0.3000354 255.0 0.0 0.0
0.2167072 0.8660254 0.2469392 255.0 0.0 0.0
-2.258673 1.187321 0.5565 0.0 0.0 0.0
0.2167072 0.6521698 0.1234696 0.0 0.0 0.0
0.9742364 0.8660254 -0.5158927 255.0 0.0 0.0
1.645344 1.732051 0.4777802 0.0 0.0 0.0
1.865342 3.330669e-16 -1.054712e-15 0.0 0.0 0.0
1.368664 1.665439 -0.4111208 255.0 0.0 0.0
0.3697756 1.099988 -0.0630366 0.0 0.0 0.0
0.8743778 1.061287 0.1947226 255.0 0.0 0.0
2.316451 1.29211 -0.41 0.0 0.0 0.0
0.7346886 0.7028638 0.1627116 0.0 0.0 0.0
0.6691358 0.6646655 -0.1162552 0.0 0.0 0.0
2.258673 1.508616 0.371 255.0 0.0 0.0
-0.7346886 1.066269 0.1156109 255.0 0.0 0.0
-0.7977583 0.6369939 9.714451e-17 0.0 0.0 0.0
-0.9742364 0.5674822 -0.295856 255.0 0.0 0.0
0.9742364 0.498421 0.2122365 0.0 0.0 0.0
0.5256152 0.9839104 0.2041828 0.0 0.0 0.0
-1.865342 1.732051 0.5 0.0 0.0 0.0
-2.258673 0.2234346 -0.371 0.0 0.0 0.0
1.14757 0.07447819 -6.938894e-16 0.0 0.0 0.0
1.645344 0.2165063 -0.625 0.0 0.0 0.0
-2.143117 1.063912 0.79975 0.0 0.0 0.0
-1.645344 7.771561e-16 -0.5 0.0 0.0 0.0
-1.783684 1.682092 -0.4111208 0.0 0.0 0.0
-0.9742364 0.2979127 -0.328 0.0 0.0 0.0
-1.368664 1.732051 0.2055604 255.0 0.0 0.0
0.9742364 0.7590782 -0.406474 255.0 0.0 0.0
2.08534 1.732051 -0.25 255.0 0.0 0.0
1.089792 1.045293 0.7245 0.0 0.0 0.0
-1.425346 0.4330127 -0.75 0.0 0.0 0.0
0.3697756 0.655459 0.1215706 0.0 0.0 0.0
-0.7346886 0.9253569 0.2226579 255.0 0.0 0.0
-0.9030403 1.134877 0.07243678 0.0 0.0 0.0
-1.089792 0.1489564 0.207 0.0 0.0 0.0
1.865342 1.082532 0.875 255.0 0.0 0.0
-0.2919519 0.988102 0.2114429 0.0 0.0 0.0
1.032014 1.347969 -0.46375 0.0 0.0 0.0
-2.08534 1.299038 0.75 0.0 0.0 0.0
-1.032014 0.54473 0.5565 0.0 0.0 0.0
-1.089792 1.583094 -0.414 0.0 0.0 0.0
2.200895 0.3282236 0.5175 0.0 0.0 0.0
0.9742364 0.4192492 -0.2579464 0.0 0.0 0.0
-0.6691358 0.9256876 0.2238989 255.0 0.0 0.0
-2.258673 1.026673 -0.64925 0.0 0.0 0.0
0.2167072 1.079881 -0.1234696 0.0 0.0 0.0
-0.7977583 1.087669 -0.05971741 255.0 0.0 0.0
2.316451 0.2979127 -0.328 0.0 0.0 0.0
2.316451 0.510955 -0.205 0.0 0.0 0.0
1.645344 1.515544 0.625 0.0 0.0 0.0
2.08534 1.299038 -0.75 0.0 0.0 0.0
0.4482921 0.9276553 -0.2312833 0.0 0.0 0.0
-0.1433969 0.6198425 -8.1532e-17 0.0 0.0 0.0
2.316451 1.025807 0.27675 255.0 0.0 0.0
0.4482921 0.8660254 -0.2401788 0.0 0.0 0.0
1.205348 1.515544 0.625 0.0 0.0 0.0
1.645344 1.665439 -0.4111208 255.0 0.0 0.0
0.9742364 0.5195743 -4.302114e-16 0.0 0.0 0.0
0.9742364 0.8660254 -0.424473 255.0 0.0 0.0
-1.425346 7.771561e-16 -0.5 0.0 0.0 0.0
1.865342 0.4330127 0.75 0.0 0.0 0.0
-2.08534 4.440892e-16 0.5 255.0 0.0 0.0
-2.200895 0.1489564 0.207 255.0 0.0 0.0
0.2919519 0.7439488 -0.2114429 0.0 0.0 0.0
-0.8743778 1.003596 0.2382789 0.0 0.0 0.0
0.9030403 0.7271186 -0.2405936 255.0 0.0 0.0
-0.07137604 1.104434 -0.06423454 0.0 0.0 0.0
-2.143117 1.063912 -0.79975 0.0 0.0 0.0
-1.032014 1.347969 0.46375 0.0 0.0 0.0
0.2167072 1.079881 0.1234696 255.0 0.0 0.0
-0.6691358 1.089759 -0.06028047 0.0 0.0 0.0
-0.7977583 0.8660254 -0.2303386 255.0 0.0 0.0
0.6691358 0.6422921 0.06028047 0.0 0.0 0.0
0.5256152 0.6987047 -0.1668591 0.0 0.0 0.0
-0.5998585 0.6630226 0.1172037 0.0 0.0 0.0
-1.783684 1.665439 4.926615e-16 0.0 0.0 0.0
2.08534 4.163336e-16 -0.25 0.0 0.0 0.0
-0.3697756 1.099988 0.0630366 0.0 0.0 0.0
-1.368664 1.732051 -0.2055604 0.0 0.0 0.0
-1.865342 0.4330127 -0.75 0.0 0.0 0.0
2.08534 1.515544 -0.625 255.0 0.0 0.0
-2.143117 1.261799 0.6855 0.0 0.0 0.0
-1.032014 0.8660254 -0.742 0.0 0.0 0.0
0.9742364 0.8660254 0.5158927 0.0 0.0 0.0
0.9030403 0.6240588 0.1396995 0.0 0.0 0.0
2.316451 1.025807 -0.27675 0.0 0.0 0.0
-0.8595865 0.8070951 -0.2211524 255.0 0.0 0.0
-0.8743778 1.105664 0.1383555 0.0 0.0 0.0
8.604228e-16 0.8660254 -0.2477301 0.0 0.0 0.0
-2.08534 1.515544 0.625 0.0 0.0 0.0
-2.258673 0.3840823 0.46375 255.0 0.0 0.0
0.6691358 1.067385 -0.1162552 0.0 0.0 0.0
0.07137604 1.112381 1.040834e-16 255.0 0.0 0.0
-1.205348 1.515544 -0.625 0.0 0.0 0.0
-0.9742364 0.596527 0.072611 0.0 0.0 0.0
0.5998585 1.069028 -0.1172037 0.0 0.0 0.0
-0.5256152 0.6987047 -0.1668591 0.0 0.0 0.0
0.1433969 0.6277839 0.06418944 0.0 0.0 0.0
-1.14757 1.657573 -0.2285 0.0 0.0 0.0
-2.258673 1.508616 -0.371 0.0 0.0 0.0
0.1433969 0.651608 0.1237939 0.0 0.0 0.0
0.2919519 0.8660254 0.2455466 255.0 0.0 0.0
-0.7346886 1.088519 -0.05994637 255.0 0.0 0.0
1.645344 1.715398 -0.4111208 255.0 0.0 0.0
1.645344 1.665439 -3.920475e-16 0.0 0.0 0.0
1.032014 0.2234346 -6.175616e-16 0.0 0.0 0.0
-0.6691358 0.7019544 -0.1636184 0.0 0.0 0.0
-0.2167072 0.9887943 -0.212642 0.0 0.0 0.0
0.7346886 0.8660254 -0.2312217 255.0 0.0 0.0
-1.14757 1.261799 -0.6855 0.0 0.0 0.0
-0.4482921 0.9854333 -0.2068206 0.0 0.0 0.0
0.7346886 0.9253569 -0.2226579 255.0 0.0 0.0
1.032014 0.3840823 0.46375 0.0 0.0 0.0
-1.425346 5.273559e-16 0.25 0.0 0.0 0.0
0.3697756 1.076592 0.1215706 255.0 0.0 0.0
-0.1433969 0.9891168 -0.2132006 0.0 0.0 0.0
0.9742364 0.6234768 -0.1400355 0.0 0.0 0.0
2.143117 0.07447819 0.2285 0.0 0.0 0.0
-0.8743778 1.105664 -0.1383555 255.0 0.0 0.0
2.200895 0.1489564 0.414 0.0 0.0 0.0
0.9742364 0.6577056 -0.3608205 255.0 0.0 0.0
1.14757 0.4702518 0.6855 0.0 0.0 0.0
-0.07137604 0.6911922 0.1743509 0.0 0.0 0.0
-1.205348 1.515544 0.625 255.0 0.0 0.0
0.07137604 0.6514574 0.1238809 0.0 0.0 0.0
2.200895 1.403827 -0.5175 0.0 0.0 0.0
-0.4482921 0.8043955 -0.2312833 0.0 0.0 0.0
0.5256152 1.09419 -0.06147441 0.0 0.0 0.0
-1.865342 0.649519 -0.875 255.0 0.0 0.0
-1.645344 1.665439 0.2055604 0.0 0.0 0.0
-1.032014 0.3840823 -0.46375 0.0 0.0 0.0
-0.2167072 1.079881 0.1234696 0.0 0.0 0.0
-2.200895 0.1489564 -0.414 0.0 0.0 0.0
-2.143117 1.459686 -0.57125 0.0 0.0 0.0
0.9742364 1.074345 0.3608205 0.0 0.0 0.0
-2.258673 1.508616 0.1855 0.0 0.0 0.0
-0.7977583 0.7515097 0.1983471 0.0 0.0 0.0
-0.7346886 0.9253569 -0.2226579 255.0 0.0 0.0
-1.425346 0.8660254 1.0 0.0 0.0 0.0
0.9742364 0.4493858 -4.77049e-16 0.0 0.0 0.0
0.7346886 1.088519 0.05994637 255.0 0.0 0.0
-2.316451 0.510955 0.205 255.0 0.0 0.0
-0.6691358 1.067385 0.1162552 255.0 0.0 0.0
1.425346 1.515544 -0.625 255.0 0.0 0.0
-0.9742364 0.5059307 0.3516468 0.0 0.0 0.0
-0.07137604 0.8024497 0.2385855 0.0 0.0 0.0
1.865342 0.4330127 -0.75 0.0 0.0 0.0
2.316451 0.8660254 -9.614223e-16 0.0 0.0 0.0
2.143117 0.4702518 -0.6855 0.0 0.0 0.0
0.9742364 1.111894 -0.2451902 0.0 0.0 0.0
1.205348 0.2165063 0.625 0.0 0.0 0.0
0.07137604 1.040859 0.1743509 255.0 0.0 0.0
-0.6691358 1.030096 0.1636184 255.0 0.0 0.0
-0.1433969 0.8024943 0.2384179 0.0 0.0 0.0
0.5256152 1.071373 -0.1185578 0.0 0.0 0.0
-1.032014 1.508616 3.469447e-16 0.0 0.0 0.0
-2.258673 1.187321 -0.5565 0.0 0.0 0.0
-1.865342 6.938894e-16 -0.25 0.0 0.0 0.0
-1.368664 1.715398 -0.4111208 0.0 0.0 0.0
2.08534 1.387779e-16 0.25 0.0 0.0 0.0
-1.205348 1.732051 4.996004e-16 0.0 0.0 0.0
-1.14757 1.063912 0.79975 0.0 0.0 0.0
-1.089792 0.6867582 0.7245 0.0 0.0 0.0
0.07137604 1.104434 -0.06423454 0.0 0.0 0.0
-0.9742364 0.5642777 0.1742141 0.0 0.0 0.0
-1.205348 0.649519 0.875 0.0 0.0 0.0
-0.9742364 1.111659 -0.4254493 255.0 0.0 0.0
-1.14757 1.261799 0.6855 0.0 0.0 0.0
0.9742364 1.108574 0.1400355 255.0 0.0 0.0
-0.6691358 0.9816209 0.2002173 255.0 0.0 0.0
0.5998585 0.7006157 -0.1649534 0.0 0.0 0.0
1.865342 0.649519 -0.875 255.0 0.0 0.0
2.200895 0.5074909 -0.621 0.0 0.0 0.0
-0.9742364 1.312802 0.2579464 0.0 0.0 0.0
-0.2167072 0.8026608 -0.2377933 0.0 0.0 0.0
0.9742364 1.005266 -0.2411723 255.0 0.0 0.0
0.7977583 1.028564 0.1620901 0.0 0.0 0.0
0.2167072 0.9887943 0.212642 255.0 0.0 0.0
-0.4482921 0.7466174 0.2068206 255.0 0.0 0.0
-0.9742364 1.434138 0.328 0.0 0.0 0.0
2.316451 0.2979127 -1.19349e-15 0.0 0.0 0.0
0.5256152 1.101795 -9.887924e-17 0.0 0.0 0.0
-2.200895 0.6867582 0.7245 255.0 0.0 0.0
1.089792 0.6867582 0.7245 0.0 0.0 0.0
8.899131e-16 0.6514848 0.1238651 0.0 0.0 0.0
-0.2167072 0.7432564 -0.212642 0.0 0.0 0.0
2.200895 0.8660254 -0.828 0.0 0.0 0.0
0.9742364 0.6234768 0.1400355 0.0 0.0 0.0
-2.200895 0.6867582 -0.7245 0.0 0.0 0.0
-0.2919519 0.8030181 -0.2364523 0.0 0.0 0.0
-2.316451 0.7239972 -0.574 0.0 0.0 0.0
0.6691358 0.6646655 0.1162552 0.0 0.0 0.0
-0.3697756 0.6320627 0.0630366 0.0 0.0 0.0
-0.3697756 0.9284155 -0.2341359 0.0 0.0 0.0
0.3697756 0.9284155 -0.2341359 0.0 0.0 0.0
1.032014 1.347969 0.46375 0.0 0.0 0.0
-1.425346 0.2165063 0.625 0.0 0.0 0.0
2.003682 1.732051 0.2277802 255.0 0.0 0.0
-0.8743778 0.8660254 -0.276711 255.0 0.0 0.0
0.8743778 1.105664 -0.1383555 255.0 0.0 0.0
0.4482921 0.7466174 0.2068206 0.0 0.0 0.0
-2.258673 0.3840823 -0.46375 0.0 0.0 0.0
-0.9742364 0.2979127 0.164 0.0 0.0 0.0
-0.9742364 0.6201569 0.2451902 0.0 0.0 0.0
1.466174 1.732051 -0.4555604 255.0 0.0 0.0
-2.316451 0.2979127 2.775558e-17 0.0 0.0 0.0
-1.287006 1.732051 0.2277802 255.0 0.0 0.0
-0.6691358 0.7504299 0.2002173 255.0 0.0 0.0
0.9742364 0.6577056 0.3608205 0.0 0.0 0.0
2.258673 0.3840823 0.46375 0.0 0.0 0.0
-2.316451 0.8660254 -0.41 0.0 0.0 0.0
-1.507004 1.682092 0.4111208 255.0 0.0 0.0
0.9742364 0.7239972 0.574 0.0 0.0 0.0
0.9030403 0.6240588 -0.1396995 0.0 0.0 0.0
-0.2919519 0.7439488 -0.2114429 0.0 0.0 0.0
0.07137604 0.8024497 0.2385855 0.0 0.0 0.0
0.1433969 0.8660254 0.2475878 255.0 0.0 0.0
-1.14757 1.459686 0.57125 255.0 0.0 0.0
2.200895 1.583094 -6.696033e-16 255.0 0.0 0.0
2.316451 1.008054 -0.574 0.0 0.0 0.0
0.2919519 0.629748 0.06366023 0.0 0.0 0.0
-0.2919519 0.8660254 -0.2455466 0.0 0.0 0.0
-2.316451 1.150082 -0.492 0.0 0.0 0.0
-0.5256152 1.071373 -0.1185578 0.0 0.0 0.0
-0.1433969 0.8660254 -0.2475878 0.0 0.0 0.0
-1.205348 1.732051 0.5 255.0 0.0 0.0
-0.1433969 0.651608 -0.1237939 0.0 0.0 0.0
2.143117 1.657573 0.2285 255.0 0.0 0.0
0.07137604 1.080593 0.1238809 255.0 0.0 0.0
1.44576 1.732051 0.4777802 0.0 0.0 0.0
8.604228e-16 0.8024578 -0.2385549 0.0 0.0 0.0
0.5998585 0.7494867 0.2018508 0.0 0.0 0.0
-0.6691358 0.6422921 0.06028047 0.0 0.0 0.0
0.7977583 0.9805412 0.1983471 0.0 0.0 0.0
-0.2919519 0.6927553 0.1727921 0.0 0.0 0.0
-0.9742364 0.498421 -0.2122365 255.0 0.0 0.0
-0.9742364 1.434138 -0.164 0.0 0.0 0.0
-1.089792 0.6867582 -0.7245 0.0 0.0 0.0
0.5256152 0.6606773 0.1185578 0.0 0.0 0.0
-0.6691358 0.8063632 0.2238989 255.0 0.0 0.0
0.7977583 1.087669 -0.05971741 255.0 0.0 0.0
0.9742364 0.2979127 0.328 0.0 0.0 0.0
0.6691358 0.9256876 0.2238989 0.0 0.0 0.0
0.6691358 0.7504299 -0.2002173 255.0 0.0 0.0
0.9742364 0.2979127 -5.828671e-16 0.0 0.0 0.0
-0.8595865 1.028084 -0.1616113 255.0 0.0 0.0
-1.032014 1.508616 -0.371 0.0 0.0 0.0
-0.3697756 0.9869061 -0.2093716 0.0 0.0 0.0
-0.7346886 0.9809802 0.1991076 255.0 0.0 0.0
-0.5998585 1.069028 -0.1172037 0.0 0.0 0.0
1.865342 1.299038 0.75 255.0 0.0 0.0
-0.9742364 0.4192492 -0.2579464 0.0 0.0 0.0
0.9030403 1.004932 -0.2405936 255.0 0.0 0.0
0.6691358 0.9256876 -0.2238989 255.0 0.0 0.0
0.2167072 0.6917727 0.173772 0.0 0.0 0.0
0.7346886 0.7510706 -0.1991076 255.0 0.0 0.0
0.9742364 0.5674822 0.295856 0.0 0.0 0.0
-1.865342 1.299038 -0.75 255.0 0.0 0.0
-0.1433969 1.040736 0.1742285 0.0 0.0 0.0
0.5998585 0.982564 -0.2018508 0.0 0.0 0.0
1.205348 1.732051 -0.25 255.0 0.0 0.0
0.5998585 0.8058764 0.2257257 0.0 0.0 0.0
-1.14757 0.4702518 0.6855 0.0 0.0 0.0
2.200895 0.3282236 -0.5175 0.0 0.0 0.0
-0.9742364 1.164569 -0.295856 255.0 0.0 0.0
-0.5256152 0.9839104 0.2041828 255.0 0.0 0.0
0.9742364 1.074345 -0.3608205 0.0 0.0 0.0
1.032014 0.2234346 0.371 0.0 0.0 0.0
-0.07137604 0.6514574 0.1238809 0.0 0.0 0.0
1.205348 7.771561e-16 -0.5 0.0 0.0 0.0
0.9742364 1.039251 0.3000354 0.0 0.0 0.0
-0.9742364 0.9729726 -0.406474 255.0 0.0 0.0
-0.07137604 1.104434 0.06423454 0.0 0.0 0.0
0.7977583 0.6665463 -0.1151693 0.0 0.0 0.0
-2.316451 0.8660254 0.41 255.0 0.0 0.0
-0.6691358 0.9256876 -0.2238989 0.0 0.0 0.0
-0.9742364 0.7415377 -0.4876745 255.0 0.0 0.0
2.200895 1.583094 0.414 255.0 0.0 0.0
0.9742364 0.460535 0.110618 0.0 0.0 0.0
-0.7346886 0.7510706 -0.1991076 0.0 0.0 0.0
-0.5998585 0.7494867 0.2018508 255.0 0.0 0.0
-0.2919519 1.078675 0.1227733 0.0 0.0 0.0
1.425346 1.732051 -0.5 255.0 0.0 0.0
2.08534 2.775558e-16 -1.137979e-15 0.0 0.0 0.0
2.316451 0.5819691 -0.492 0.0 0.0 0.0
-1.645344 0.2165063 0.625 0.0 0.0 0.0
0.2167072 0.7432564 0.212642 255.0 0.0 0.0
0.7346886 1.029187 -0.1627116 255.0 0.0 0.0
-0.9742364 0.7239972 0.574 0.0 0.0 0.0
-2.200895 1.583094 -0.207 0.0 0.0 0.0
0.7977583 0.9251303 -0.2218075 255.0 0.0 0.0
0.9742364 1.434138 -0.164 0.0 0.0 0.0
-0.6691358 0.8063632 -0.2238989 0.0 0.0 0.0
-1.865342 1.299038 0.75 0.0 0.0 0.0
-2.200895 1.583094 -0.414 0.0 0.0 0.0
-1.425346 1.299038 0.75 0.0 0.0 0.0
0.7346886 1.066269 0.1156109 0.0 0.0 0.0
0.9742364 0.5875437 -3.816392e-16 0.0 0.0 0.0
-0.9742364 0.8660254 -0.3484282 255.0 0.0 0.0
0.1433969 1.040736 0.1742285 255.0 0.0 0.0
-0.9742364 1.111659 0.4254493 0.0 0.0 0.0
2.258673 0.7053777 0.64925 255.0 0.0 0.0
-0.9742364 0.5195743 6.938894e-18 0.0 0.0 0.0
-2.143117 1.657573 4.718448e-16 0.0 0.0 0.0
-0.9742364 0.6234768 -0.1400355 255.0 0.0 0.0
-0.9742364 1.23363 0.2122365 0.0 0.0 0.0
1.14757 0.8660254 0.914 0.0 0.0 0.0
0.5998585 1.099103 -1.327063e-16 0.0 0.0 0.0
0.9742364 0.9905131 0.4876745 0.0 0.0 0.0
2.316451 1.434138 -0.164 0.0 0.0 0.0
0.2167072 0.6204875 -1.491862e-16 0.0 0.0 0.0
1.368664 1.665439 0.2055604 0.0 0.0 0.0
0.3697756 0.6944528 0.1710993 0.0 0.0 0.0
1.14757 0.07447819 0.2285 0.0 0.0 0.0
2.316451 0.2979127 0.164 0.0 0.0 0.0
-0.2167072 0.7432564 0.212642 0.0 0.0 0.0
-1.425346 0.8660254 -1.0 255.0 0.0 0.0
0.07137604 0.8660254 -0.2477618 0.0 0.0 0.0
0.1433969 1.040736 -0.1742285 0.0 0.0 0.0
0.8595865 1.028084 -0.1616113 255.0 0.0 0.0
-2.200895 1.22456 -0.621 0.0 0.0 0.0
-0.2919519 0.629748 -0.06366023 0.0 0.0 0.0
0.2167072 0.6917727 -0.173772 0.0 0.0 0.0
0.9742364 0.6201569 -0.2451902 0.0 0.0 0.0
-2.003682 1.732051 -0.2277802 0.0 0.0 0.0
-0.8595865 0.9249557 0.2211524 0.0 0.0 0.0
0.4482921 0.6349133 0.06226858 0.0 0.0 0.0
-1.032014 1.187321 -0.5565 0.0 0.0 0.0
0.4482921 1.035508 0.1690147 0.0 0.0 0.0
-1.14757 1.459686 -0.57125 0.0 0.0 0.0
-1.507004 1.665439 4.926615e-16 0.0 0.0 0.0
-1.032014 1.508616 -0.1855 0.0 0.0 0.0
1.089792 1.22456 0.621 0.0 0.0 0.0
2.200895 1.22456 -0.621 0.0 0.0 0.0
0.8743778 1.141166 -2.775558e-16 255.0 0.0 0.0
2.316451 0.2979127 -0.164 0.0 0.0 0.0
-1.089792 1.045293 0.7245 0.0 0.0 0.0
0.3697756 1.107787 -1.040834e-17 0.0 0.0 0.0
2.316451 0.7239972 -0.574 0.0 0.0 0.0
0.9742364 0.6927999 0.3000354 0.0 0.0 0.0
-0.9742364 0.6577056 0.3608205 0.0 0.0 0.0
-1.865342 7.771561e-16 -0.5 0.0 0.0 0.0
-1.425346 6.938894e-16 -0.25 0.0 0.0 0.0
2.143117 0.07447819 0.457 0.0 0.0 0.0
0.5256152 0.8660254 0.2371156 0.0 0.0 0.0
-0.8743778 0.728455 0.2382789 0.0 0.0 0.0
-1.783684 1.665439 0.2055604 0.0 0.0 0.0
-0.9742364 0.7766187 0.3355235 0.0 0.0 0.0
1.032014 0.3840823 -0.46375 0.0 0.0 0.0
0.7346886 1.029187 0.1627116 0.0 0.0 0.0
0.3697756 0.7451447 0.2093716 0.0 0.0 0.0
-1.645344 1.665439 -0.2055604 0.0 0.0 0.0
0.4482921 1.104841 -5.648693e-17 0.0 0.0 0.0
-2.316451 0.5819691 0.492 255.0 0.0 0.0
-2.258673 1.508616 0.371 0.0 0.0 0.0
-1.865342 6.106227e-16 -1.665335e-16 0.0 0.0 0.0
-0.9742364 1.271516 0.110618 0.0 0.0 0.0
0.9742364 1.008054 -0.574 0.0 0.0 0.0
-2.316451 0.4399409 0.41 255.0 0.0 0.0
1.089792 1.583094 0.414 0.0 0.0 0.0
0.5998585 0.6404667 0.06077229 0.0 0.0 0.0
0.7977583 0.7515097 -0.1983471 255.0 0.0 0.0
-0.1433969 1.080443 0.1237939 0.0 0.0 0.0
0.07137604 1.040859 -0.1743509 0.0 0.0 0.0
9.194034e-16 1.040836 0.1743286 255.0 0.0 0.0
-0.2167072 1.103643 0.06402126 0.0 0.0 0.0
-2.316451 0.8660254 1.95831e-16 0.0 0.0 0.0
-1.089792 1.583094 3.885781e-16 0.0 0.0 0.0
1.14757 0.8660254 -0.914 0.0 0.0 0.0
-0.8743778 0.9370295 0.2664624 0.0 0.0 0.0
-1.645344 5.273559e-16 0.25 0.0 0.0 0.0
2.200895 1.22456 0.621 255.0 0.0 0.0
